0.241286 58.1166 408.088 -0.720464 -0.305665 0.622496
0.0522724 58.1954 407.856 -0.736858 -0.257616 0.625039
-0.133947 58.2445 407.701 -0.718348 -0.253205 0.647969
-0.322925 58.3173 407.495 -0.777882 -0.242609 0.579691
-0.512441 58.3966 407.253 -0.809526 -0.242233 0.534781
-0.704086 58.495 406.991 -0.821907 -0.256256 0.508725
-1.47655 58.907 405.87 -0.866678 -0.207338 0.453741
-1.67407 59.0396 405.504 -0.863934 -0.237959 0.44384
-1.8677 59.1425 405.228 -0.822931 -0.286794 0.490443
-2.0615 59.2398 404.993 -0.808967 -0.316931 0.495104
-2.25334 59.3144 404.743 -0.753526 -0.353468 0.55431
-2.44367 59.3779 404.553 -0.665547 -0.365328 0.650832
-2.63291 59.4333 404.388 -0.433086 -0.369007 0.822356
-2.81547 59.4245 404.363 -0.174387 -0.343437 0.922844
-2.99886 59.4276 404.316 -0.169859 -0.35536 0.919167
-3.18111 59.4161 404.295 -0.12642 -0.368531 0.920979
-3.36438 59.4157 404.264 -0.0711619 -0.363784 0.928761
-3.54653 59.4013 404.256 -0.0206509 -0.345522 0.938183
-3.72797 59.3869 404.254 0.0481992 -0.331312 0.94229
-3.90955 59.3691 404.257 0.0647682 -0.29409 0.953581
-4.09024 59.3522 404.255 0.0675753 -0.254787 0.964633
-4.27179 59.3279 404.264 0.0885181 -0.229182 0.96935
-4.45098 59.3029 404.29 0.129612 -0.260319 0.956783
-4.63238 59.2762 404.307 0.156133 -0.284868 0.945766
-4.81256 59.2532 404.329 0.14567 -0.272436 0.951083
-4.99235 59.2255 404.344 0.121512 -0.264098 0.956811
-5.17279 59.2063 404.352 0.10598 -0.238481 0.965347
-5.35429 59.182 404.368 0.129428 -0.205141 0.970137
-5.53383 59.156 404.391 0.136615 -0.210135 0.96808
-5.71452 59.1337 404.405 0.127926 -0.215856 0.968009
-5.89354 59.1061 404.423 0.0975339 -0.200132 0.974902
-6.07516 59.0858 404.435 0.0278518 -0.203054 0.978771
-6.25711 59.0718 404.421 -0.028186 -0.191417 0.981104
-6.43822 59.0608 404.41 -0.0136701 -0.183958 0.982839
-6.62093 59.047 404.407 0.0142586 -0.1815 0.983288
-7.35062 59.0081 404.338 -0.0671528 -0.153691 0.985834
-7.53227 58.9921 404.336 -0.0324394 -0.171249 0.984694
-7.7138 58.9804 404.316 -0.0835418 -0.174769 0.981059
-7.89719 58.9738 404.297 -0.142948 -0.183577 0.972556
-8.08339 58.9821 404.251 -0.2206 -0.130621 0.966578
-8.26591 58.9781 404.207 -0.237904 -0.114699 0.964493
-8.45074 58.9788 404.174 -0.165695 -0.165866 0.972128
-8.63273 58.967 404.157 -0.208775 -0.185028 0.960301
-8.81781 58.9734 404.1 -0.222807 -0.210503 0.951864
-9.00221 58.973 404.065 -0.184933 -0.188572 0.96449
-9.18564 58.9707 404.02 -0.282671 -0.12871 0.950542
-9.37417 58.9939 403.935 -0.317749 -0.100741 0.942808
-9.55854 58.9928 403.901 -0.287091 -0.148449 0.946331
-9.743 58.9941 403.854 -0.346454 -0.210894 0.914053
-9.93215 59.0224 403.748 -0.364924 -0.177929 0.913877
-10.1164 59.0218 403.706 -0.312513 -0.168971 0.934764
-10.3025 59.0292 403.652 -0.330467 -0.232419 0.914753
-10.49 59.0447 403.579 -0.391998 -0.241737 0.887638
-10.6762 59.056 403.491 -0.437298 -0.200776 0.876618
-10.8665 59.0874 403.396 -0.426575 -0.176538 0.887056
-11.0538 59.1018 403.321 -0.447815 -0.157881 0.880077
-11.2435 59.1288 403.218 -0.470232 -0.139276 0.871484
-11.4334 59.1568 403.112 -0.536114 -0.157021 0.829413
-11.6276 59.2068 402.96 -0.536587 -0.149589 0.83048
-11.8154 59.2238 402.875 -0.51419 -0.133803 0.847175
-12.0049 59.2501 402.762 -0.577593 -0.145874 0.803186
-12.1989 59.2959 402.625 -0.566941 -0.175522 0.804841
-12.39 59.3292 402.503 -0.56178 -0.192829 0.8045
-12.5828 59.3674 402.376 -0.584108 -0.19095 0.788895
-12.7773 59.4135 402.238 -0.615955 -0.188785 0.764826
-12.9707 59.4555 402.094 -0.629493 -0.215132 0.746631
-13.1633 59.4975 401.94 -0.670722 -0.224728 0.706845
-13.3623 59.5647 401.75 -0.665988 -0.225864 0.710947
-13.5569 59.6081 401.614 -0.634201 -0.247399 0.732518
-13.7541 59.6689 401.425 -0.6831 -0.200282 0.702326
-13.9528 59.7347 401.23 -0.672555 -0.145872 0.725528
-14.1464 59.7723 401.101 -0.615031 -0.187369 0.765917
-14.3415 59.817 400.955 -0.63012 -0.169073 0.757868
-14.5374 59.8683 400.784 -0.660105 -0.117903 0.741863
-14.7365 59.9294 400.61 -0.662889 -0.108216 0.740855
-14.9343 59.9853 400.438 -0.660185 -0.0443139 0.749795
-15.1306 60.0326 400.286 -0.641224 -0.0577191 0.76518
-15.329 60.0905 400.11 -0.593113 -0.0574432 0.803068
-15.5248 60.1336 399.968 -0.667224 0.0319623 0.744171
-15.7272 60.2089 399.75 -0.710409 0.0138677 0.703652
-15.9275 60.2729 399.558 -0.70092 -0.000218883 0.71324
-16.1287 60.3406 399.358 -0.739979 0.0182524 0.672382
-16.3321 60.4174 399.137 -0.706777 -0.0277957 0.70689
-16.5321 60.477 398.956 -0.621732 0.00243467 0.783226
-16.73 60.5255 398.801 -0.65745 0.0905707 0.748035
-16.9327 60.5958 398.594 -0.730354 0.103648 0.67516
-17.1403 60.6888 398.334 -0.75516 0.0650213 0.652308
-17.3466 60.7743 398.092 -0.738948 0.0629551 0.670815
-17.5514 60.8519 397.868 -0.715708 0.10559 0.690372
-17.7583 60.9379 397.624 -0.718885 0.0865884 0.689716
-17.9617 61.0063 397.422 -0.79769 0.0632838 0.599737
-18.1827 61.1554 397.029 -0.813562 0.0620313 0.578161
-18.3914 61.2458 396.774 -0.80294 0.078683 0.590844
-18.6073 61.3685 396.444 -0.833458 0.105766 0.542367
-18.8314 61.5265 396.029 -0.835884 0.145485 0.529276
9.06617 57.9106 411.022 0.308908 -0.20374 0.929013
8.88887 57.8782 411.041 0.244165 -0.0899921 0.965549
8.71207 57.8328 411.106 0.166929 -0.048007 0.9848
8.53441 57.8087 411.121 0.0985981 -0.0991722 0.990173
8.35667 57.7865 411.13 0.0859942 -0.107436 0.990486
8.17887 57.7661 411.133 0.0611492 -0.078088 0.995069
8.00092 57.7456 411.147 0.0457322 -0.0498695 0.997708
7.8236 57.7223 411.158 0.0596715 -0.0500238 0.996964
7.64486 57.7134 411.141 0.0155643 -0.0113937 0.999814
7.46682 57.7025 411.129 -0.0355496 0.0419857 0.998486
7.28832 57.695 411.12 -0.121044 0.0588686 0.9909
6.57642 57.63 411.083 -0.153479 -0.107667 0.982269
6.39809 57.6188 411.074 -0.0952096 -0.121767 0.987982
6.2196 57.6098 411.061 -0.0941664 -0.15831 0.982889
6.04129 57.5992 411.038 -0.1558 -0.140391 0.977761
5.86212 57.6012 410.996 -0.197981 -0.127248 0.971911
5.68339 57.5954 410.971 -0.222499 -0.196856 0.954852
5.50404 57.5991 410.922 -0.237591 -0.227174 0.944427
5.32473 57.6012 410.879 -0.237431 -0.197343 0.951148
5.1455 57.6024 410.832 -0.251654 -0.208063 0.945188
4.96604 57.6058 410.784 -0.307498 -0.202747 0.929698
4.78605 57.616 410.72 -0.328243 -0.182245 0.926846
4.60673 57.6166 410.676 -0.332056 -0.254655 0.908234
4.42629 57.6312 410.603 -0.303344 -0.320863 0.897234
4.2466 57.635 410.554 -0.223356 -0.3224 0.919875
4.06729 57.633 410.518 -0.282961 -0.324396 0.902608
3.88651 57.6497 410.441 -0.309523 -0.309249 0.8992
3.70663 57.6541 410.389 -0.309499 -0.245467 0.918671
3.52606 57.6665 410.319 -0.356533 -0.153601 0.92157
3.34567 57.6779 410.244 -0.447886 -0.148856 0.881612
3.16368 57.7051 410.144 -0.498645 -0.199936 0.843433
2.98231 57.7253 410.05 -0.503758 -0.230086 0.832639
2.80013 57.7541 409.938 -0.566889 -0.230533 0.79088
2.61643 57.7986 409.809 -0.574908 -0.238379 0.782724
2.4336 57.8313 409.692 -0.513849 -0.259106 0.817816
2.25055 57.8642 409.591 -0.483897 -0.237991 0.842143
2.06955 57.8767 409.496 -0.528625 -0.226096 0.818191
1.88594 57.9139 409.378 -0.510085 -0.248934 0.823314
1.70368 57.9351 409.29 -0.540655 -0.256018 0.80134
1.51972 57.9758 409.151 -0.590674 -0.256294 0.765126
1.33627 58.0095 409.028 -0.566647 -0.245171 0.78664
1.15249 58.0441 408.908 -0.624072 -0.237857 0.744283
0.966747 58.0974 408.747 -0.634828 -0.239132 0.734717
0.782394 58.1355 408.617 -0.61163 -0.239612 0.753986
0.597581 58.1786 408.459 -0.66885 -0.239599 0.703727
0.411872 58.2245 408.316 -0.682897 -0.305935 0.663367
0.22489 58.2851 408.145 -0.74089 -0.304091 0.598841
0.0352009 58.3736 407.901 -0.740566 -0.25851 0.62027
-0.150604 58.4196 407.745 -0.717671 -0.258265 0.646721
-0.339718 58.495 407.528 -0.774252 -0.222637 0.592424
-0.529595 58.5731 407.317 -0.803441 -0.209903 0.557157
-0.720162 58.6605 407.064 -0.81249 -0.258923 0.522322
-0.911053 58.7467 406.822 -0.836135 -0.282223 0.470349
-1.10528 58.862 406.511 -0.86189 -0.267528 0.430782
-1.30036 58.9821 406.189 -0.841773 -0.287867 0.456674
-1.49349 59.0822 405.9 -0.85674 -0.247792 0.452323
-1.69052 59.2163 405.565 -0.852041 -0.289443 0.436174
-1.88302 59.3019 405.317 -0.80064 -0.385652 0.458528
-2.07691 59.4004 405.046 -0.803494 -0.331234 0.494653
-2.26999 59.4911 404.793 -0.765656 -0.298661 0.569713
-2.46029 59.5528 404.607 -0.688541 -0.333899 0.643757
-2.64943 59.5998 404.454 -0.458674 -0.369359 0.808203
-2.83203 59.5973 404.417 -0.161906 -0.341183 0.925949
-3.01518 59.5927 404.393 -0.154927 -0.340349 0.927448
-3.19811 59.5934 404.357 -0.126882 -0.373036 0.9191
-3.38056 59.583 404.335 -0.086045 -0.362836 0.927872
-3.56318 59.5745 404.316 -0.0307378 -0.326439 0.944719
-3.7447 59.5615 404.303 0.00593395 -0.288821 0.957365
-3.92644 59.5459 404.301 0.0189144 -0.251362 0.967708
-4.108 59.5299 404.299 0.0413105 -0.241488 0.969524
-4.28929 59.511 404.306 0.126167 -0.230076 0.96496
-4.46861 59.4807 404.335 0.156123 -0.232912 0.959884
-4.64957 59.4567 404.354 0.138424 -0.253661 0.957337
-4.82936 59.4293 404.374 0.13107 -0.247452 0.959994
-5.00989 59.4058 404.389 0.0882782 -0.220357 0.971416
-5.19084 59.3869 404.396 0.0712001 -0.208636 0.975398
-5.37274 59.3669 404.4 0.134549 -0.197268 0.971073
-5.55135 59.3352 404.436 0.138871 -0.187283 0.97244
-5.73228 59.3149 404.447 0.105162 -0.190962 0.975948
-5.91169 59.2926 404.463 0.0923355 -0.19916 0.975607
-6.09453 59.2742 404.467 0.00990607 -0.198456 0.98006
-6.27601 59.2593 404.459 -0.033754 -0.201713 0.978863
-6.45772 59.2447 404.456 -0.0119043 -0.20713 0.978241
-6.63956 59.2289 404.453 -0.0239054 -0.199916 0.979521
-6.82103 59.2181 404.432 -0.097627 -0.163297 0.981735
-7.00432 59.2131 404.403 -0.121827 -0.134481 0.983399
-7.18857 59.2084 404.39 -0.0969248 -0.12821 0.986999
-7.37013 59.1971 404.366 -0.0483614 -0.128595 0.990517
-7.55116 59.1805 404.364 -0.0359324 -0.141155 0.989335
-7.73362 59.1679 404.354 -0.0805821 -0.165432 0.982924
-7.91559 59.1563 404.337 -0.20271 -0.179525 0.962642
-8.1023 59.172 404.265 -0.235986 -0.154127 0.959456
-8.2842 59.1599 404.248 -0.179913 -0.135863 0.974255
-8.4687 59.1618 404.205 -0.149066 -0.154477 0.976686
-8.65112 59.1525 404.183 -0.184694 -0.146315 0.971844
-8.8363 59.1569 404.137 -0.243495 -0.143454 0.959235
-9.01998 59.1568 404.089 -0.252156 -0.167424 0.953093
-9.20708 59.1708 404.024 -0.31168 -0.142483 0.939444
-9.3918 59.1733 403.978 -0.269798 -0.158191 0.949834
-9.57594 59.1727 403.938 -0.226476 -0.189602 0.955385
-9.76293 59.1849 403.886 -0.375634 -0.131626 0.917373
-9.94987 59.2016 403.793 -0.371083 -0.135817 0.918614
-10.1353 59.207 403.74 -0.252183 -0.20325 0.946094
-10.3204 59.2097 403.694 -0.323959 -0.166974 0.93122
-10.5074 59.2248 403.616 -0.427864 -0.171054 0.887509
-10.6975 59.2553 403.507 -0.455898 -0.150918 0.877143
-10.8857 59.2746 403.422 -0.441904 -0.145055 0.885257
-11.0754 59.303 403.316 -0.463944 -0.14747 0.873503
-11.2649 59.3292 403.214 -0.454631 -0.0876623 0.886355
-11.4521 59.3417 403.145 -0.53458 -0.0648837 0.842623
-11.6448 59.3863 402.997 -0.546931 -0.135038 0.826215
-11.8348 59.412 402.9 -0.508923 -0.218943 0.832503
-12.0275 59.4541 402.761 -0.558027 -0.16435 0.813385
-12.2182 59.4833 402.652 -0.553412 -0.137233 0.821525
-12.4102 59.5199 402.526 -0.559557 -0.117463 0.820426
-12.6026 59.5575 402.397 -0.582126 -0.12325 0.803703
-12.7948 59.596 402.256 -0.595715 -0.134358 0.791879
-12.988 59.6367 402.126 -0.618481 -0.157967 0.769758
-13.184 59.6893 401.967 -0.669924 -0.175367 0.721422
-13.3804 59.7453 401.795 -0.653606 -0.140285 0.74372
-13.5743 59.7896 401.646 -0.65458 -0.113451 0.747432
-13.774 59.8568 401.465 -0.707173 -0.137186 0.693604
-13.9723 59.9199 401.27 -0.651614 -0.189376 0.734531
-14.1639 59.9514 401.146 -0.627066 -0.194194 0.754372
-14.3642 60.0219 400.943 -0.658878 -0.135804 0.73989
-14.5592 60.0649 400.802 -0.663578 -0.0991784 0.741504
-14.7582 60.1282 400.613 -0.694108 -0.080215 0.715388
-14.9591 60.1999 400.404 -0.648924 -0.0293891 0.760285
-15.1538 60.2394 400.271 -0.633695 -0.0245567 0.773193
-15.3525 60.2979 400.092 -0.659933 -0.0487891 0.749739
-15.552 60.3599 399.906 -0.667447 0.0043562 0.744645
-15.7503 60.4144 399.738 -0.690217 0.0710363 0.720108
-15.953 60.4902 399.519 -0.695411 0.0999255 0.711631
-16.1558 60.5655 399.301 -0.697676 0.0959009 0.709966
-16.3568 60.6304 399.108 -0.697442 0.0609839 0.714042
-16.56 60.7051 398.891 -0.671827 0.0624709 0.738069
-16.7619 60.7728 398.691 -0.670387 0.140387 0.72861
-16.967 60.8548 398.457 -0.693671 0.178704 0.697772
-17.1686 60.9186 398.266 -0.725903 0.160436 0.668824
-17.3788 61.0224 397.981 -0.72181 0.183054 0.667444
-17.5852 61.107 397.741 -0.677361 0.203151 0.707044
-17.785 61.1587 397.579 -0.699121 0.177127 0.692716
-17.9975 61.27 397.275 -0.767919 0.178413 0.615199
-18.2089 61.3737 396.99 -0.787985 0.168874 0.592082
-18.4257 61.5016 396.647 -0.795393 0.168223 0.582282
7.98392 57.9396 411.148 0.0438401 -0.0210681 0.998816
7.80591 57.919 411.155 -0.000176048 0.089222 0.996012
7.62807 57.8992 411.161 -0.0548025 0.0723386 0.995873
7.44988 57.8851 411.15 -0.0642782 0.0428752 0.997011
7.27175 57.8727 411.139 -0.111319 -0.026243 0.993438
6.55919 57.8169 411.109 -0.136755 -0.0701035 0.988121
6.38084 57.805 411.097 -0.0573547 -0.125485 0.990436
6.2026 57.7929 411.085 -0.121925 -0.0948684 0.987995
6.02354 57.7937 411.042 -0.175269 -0.0742846 0.981714
5.84512 57.7834 411.021 -0.128266 -0.130584 0.983105
5.66684 57.7706 411.012 -0.194097 -0.156282 0.968453
5.48702 57.7812 410.95 -0.269561 -0.138336 0.952995
5.30799 57.7805 410.903 -0.229448 -0.139452 0.963279
5.12865 57.7812 410.869 -0.260274 -0.147584 0.954189
4.9487 57.7916 410.805 -0.327877 -0.151344 0.932519
4.76836 57.806 410.735 -0.260179 -0.142134 0.955042
4.58994 57.7933 410.72 -0.273594 -0.172428 0.946264
4.40974 57.8055 410.648 -0.306892 -0.213878 0.927402
4.23026 57.8058 410.61 -0.225317 -0.260333 0.938861
4.05053 57.8092 410.562 -0.300744 -0.268878 0.915018
3.87036 57.8186 410.495 -0.370255 -0.267088 0.889705
3.68904 57.8411 410.407 -0.395578 -0.203645 0.895571
3.50724 57.868 410.313 -0.364263 -0.0961878 0.926316
3.3276 57.8673 410.275 -0.404777 -0.118856 0.906658
3.14623 57.8889 410.175 -0.474586 -0.165504 0.86451
2.96481 57.909 410.088 -0.500984 -0.187669 0.844864
2.78231 57.941 409.972 -0.561282 -0.196593 0.803936
2.60021 57.9686 409.851 -0.563757 -0.205031 0.800087
2.41707 58.0047 409.739 -0.530535 -0.243727 0.811868
2.23423 58.0351 409.63 -0.491776 -0.255523 0.832385
2.05156 58.0634 409.537 -0.51217 -0.229063 0.827776
1.86895 58.0911 409.422 -0.503598 -0.235516 0.831217
1.68688 58.1116 409.331 -0.53725 -0.250632 0.805324
1.5024 58.1559 409.2 -0.599503 -0.23801 0.764164
1.31865 58.1922 409.063 -0.568125 -0.230654 0.789957
1.13531 58.2222 408.953 -0.622117 -0.214386 0.753
0.949019 58.2809 408.784 -0.636126 -0.218113 0.740115
0.765388 58.3143 408.662 -0.607681 -0.238662 0.757472
0.579969 58.3588 408.53 -0.627858 -0.269553 0.730161
0.395274 58.3986 408.392 -0.675986 -0.294601 0.675465
0.208029 58.4623 408.19 -0.763124 -0.253872 0.594299
0.0189555 58.542 407.963 -0.743588 -0.26098 0.615603
-0.168661 58.6035 407.8 -0.730523 -0.227583 0.643849
-0.357089 58.6737 407.575 -0.777437 -0.18953 0.599725
-0.546479 58.7521 407.343 -0.782142 -0.208709 0.587107
-0.735953 58.8253 407.139 -0.799971 -0.22858 0.554795
-0.927583 58.9191 406.877 -0.839645 -0.235826 0.489267
-1.12176 59.0336 406.567 -0.863148 -0.21917 0.454906
-1.31621 59.1455 406.257 -0.854625 -0.240257 0.460319
-1.51098 59.2601 405.968 -0.846199 -0.245475 0.472959
-1.70256 59.3448 405.72 -0.826863 -0.346494 0.442989
-1.89742 59.4525 405.428 -0.818774 -0.379058 0.431189
-2.09278 59.5664 405.12 -0.820766 -0.30891 0.480539
-2.28552 59.6524 404.878 -0.758002 -0.339632 0.556851
-2.47549 59.7121 404.698 -0.689099 -0.36628 0.625285
-2.66589 59.7755 404.515 -0.477485 -0.449709 0.754831
-2.84866 59.7716 404.478 -0.152901 -0.433636 0.888021
-3.03186 59.7696 404.443 -0.120178 -0.341304 0.932239
-3.21409 59.7569 404.436 -0.138489 -0.344872 0.928377
-3.39727 59.7582 404.384 -0.122755 -0.336105 0.93379
-3.57999 59.7484 404.372 -0.0698782 -0.298352 0.951895
-3.76156 59.7384 404.35 -0.0320489 -0.283006 0.958583
-3.94389 59.7242 404.346 0.0134768 -0.279423 0.960074
-4.12491 59.7074 404.345 0.0421811 -0.273923 0.960826
-4.30636 59.6878 404.354 0.138669 -0.28273 0.949123
-4.48534 59.6547 404.385 0.181457 -0.288396 0.94016
-4.66634 59.6288 404.409 0.132854 -0.270171 0.953602
-4.84685 59.6085 404.419 0.0963283 -0.237961 0.966486
-5.02753 59.5878 404.423 0.0727738 -0.207906 0.975438
-5.20839 59.5682 404.433 0.0665174 -0.204567 0.97659
-5.38978 59.5456 404.445 0.125316 -0.20324 0.971077
-5.56972 59.5206 404.465 0.137146 -0.175972 0.974795
-5.74933 59.4929 404.48 0.108059 -0.154707 0.982033
-5.92989 59.4702 404.502 0.0784253 -0.15806 0.98431
-6.11146 59.4526 404.504 0.00838766 -0.190094 0.98173
-6.29304 59.4373 404.5 -0.0233548 -0.226287 0.973781
-6.47476 59.4242 404.485 -0.0198012 -0.211656 0.977144
-6.65694 59.4101 404.479 -0.0734037 -0.149159 0.986085
-6.83837 59.4032 404.449 -0.132786 -0.118472 0.984039
-7.02224 59.3976 404.427 -0.127006 -0.0981106 0.987038
-7.20747 59.4012 404.394 -0.0929302 -0.104552 0.990168
-7.38938 59.3846 404.392 -0.0334491 -0.133627 0.990467
-7.56928 59.3676 404.387 -0.01601 -0.126456 0.991843
-7.75156 59.3511 404.384 -0.0775221 -0.12719 0.988844
-7.9356 59.3497 404.351 -0.231039 -0.144501 0.962154
-8.12063 59.3552 404.298 -0.247216 -0.177712 0.952524
-8.30253 59.3508 404.25 -0.157352 -0.150768 0.975966
-8.48754 59.3475 404.236 -0.159849 -0.140738 0.977057
-8.6703 59.3438 404.193 -0.192312 -0.166535 0.9671
-8.85694 59.3504 404.158 -0.221903 -0.141746 0.964711
-9.03983 59.3459 404.118 -0.280578 -0.116556 0.952728
-9.22575 59.356 404.055 -0.293993 -0.124936 0.947607
-9.41031 59.3591 404.003 -0.237181 -0.151957 0.959507
-9.59557 59.3622 403.961 -0.294341 -0.14915 0.94399
-9.78083 59.3736 403.871 -0.369294 -0.0933103 0.924616
-9.96772 59.3867 403.812 -0.302055 -0.0915981 0.94888
-10.1535 59.3885 403.78 -0.290882 -0.122229 0.948919
-10.342 59.4116 403.686 -0.323443 -0.0896438 0.941992
-10.5263 59.4092 403.652 -0.441377 -0.063963 0.895039
-10.7185 59.4535 403.508 -0.456945 -0.0697585 0.886755
-10.9037 59.4552 403.465 -0.43835 -0.0885657 0.89443
-11.0948 59.4917 403.339 -0.507481 -0.104248 0.855333
-11.2859 59.5258 403.236 -0.479457 -0.115452 0.869938
-11.4765 59.5586 403.102 -0.479964 -0.0736018 0.874195
-11.6631 59.5671 403.042 -0.482005 -0.0991572 0.870539
-11.8531 59.594 402.939 -0.546489 -0.148052 0.824276
-12.0462 59.638 402.796 -0.574884 -0.127226 0.808283
-12.2386 59.677 402.664 -0.567532 -0.135339 0.812152
-12.4321 59.722 402.519 -0.554987 -0.0987967 0.825971
-12.6222 59.7469 402.42 -0.573423 -0.104415 0.812578
-12.8169 59.7963 402.264 -0.579584 -0.120881 0.805897
-13.0077 59.8237 402.16 -0.599192 -0.0579155 0.798507
-13.2042 59.8815 401.984 -0.678192 -0.0530434 0.732968
-13.4032 59.9515 401.779 -0.663785 -0.0846621 0.743116
-13.5996 60.0048 401.63 -0.638757 -0.0748776 0.765757
-13.7917 60.0401 401.479 -0.680472 -0.101242 0.725746
-13.9896 60.1018 401.3 -0.648631 -0.168303 0.742261
-14.1852 60.1474 401.159 -0.658069 -0.12741 0.7421
-14.3842 60.2121 400.966 -0.674247 -0.0817932 0.733963
-14.581 60.265 400.802 -0.666934 -0.0265345 0.744644
-14.7814 60.3351 400.597 -0.704231 0.00491951 0.709953
-14.9809 60.3995 400.405 -0.644869 0.00673997 0.764264
-15.1758 60.4399 400.27 -0.613935 0.0199462 0.789104
-15.3739 60.4953 400.099 -0.672966 0.0564893 0.737514
-15.5757 60.5684 399.887 -0.69901 0.0561108 0.712907
-15.7803 60.6547 399.644 -0.707436 0.0715657 0.703145
-15.9825 60.7274 399.432 -0.674848 0.168397 0.718486
-16.1818 60.785 399.257 -0.657242 0.171309 0.733953
-16.383 60.8507 399.062 -0.676811 0.132089 0.72421
-16.5847 60.9183 398.862 -0.698597 0.135572 0.702554
-16.7912 61.0075 398.612 -0.699668 0.145172 0.699564
-16.9929 61.0729 398.417 -0.694469 0.170189 0.699105
-17.2013 61.1692 398.15 -0.738806 0.155179 0.655809
-17.4109 61.2696 397.873 -0.729927 0.157341 0.665169
-17.6126 61.3316 397.687 -0.677773 0.169738 0.715411
-17.8204 61.4212 397.435 -0.721787 0.182124 0.667723
-18.0307 61.5214 397.158 -0.757674 0.212299 0.617138
-18.246 61.6431 396.831 -0.77517 0.211315 0.595364
-18.462 61.7667 396.498 -0.803895 0.198019 0.56084
7.60984 58.1129 411.116 -0.0328305 0.190356 0.981166
7.4316 58.0964 411.114 -0.0046213 0.152246 0.988332
7.25409 58.0651 411.146 0.0127008 0.113005 0.993513
6.54201 58.0026 411.13 -0.075959 -0.00392659 0.997103
6.36371 57.9908 411.118 -0.100775 -0.0103661 0.994855
6.18462 57.9918 411.082 -0.151332 0.00209509 0.988481
6.0063 57.9796 411.063 -0.11679 -0.0232544 0.992884
5.82822 57.9633 411.06 -0.109462 -0.0782432 0.990907
5.6489 57.967 411.011 -0.218403 -0.0421191 0.974949
5.46941 57.9708 410.971 -0.266658 -0.0379378 0.963044
5.2906 57.9677 410.921 -0.224761 -0.10355 0.968896
5.11118 57.9692 410.885 -0.260245 -0.12866 0.956932
4.93139 57.977 410.827 -0.333203 -0.136308 0.93295
4.75172 57.983 410.768 -0.230481 -0.144567 0.962278
4.57254 57.9794 410.741 -0.235017 -0.10515 0.966287
4.39259 57.9873 410.682 -0.262863 -0.121023 0.957213
4.21362 57.9809 410.655 -0.221174 -0.203435 0.95378
4.03365 57.9873 410.601 -0.304059 -0.223692 0.926018
3.85345 57.9964 410.54 -0.426262 -0.193749 0.883607
3.67139 58.029 410.424 -0.481417 -0.138402 0.865496
3.49044 58.0466 410.335 -0.344454 -0.140303 0.92826
3.31083 58.0456 410.295 -0.362616 -0.167589 0.916746
3.12866 58.0749 410.196 -0.456236 -0.163299 0.874747
2.94758 58.0904 410.12 -0.492798 -0.181557 0.850992
2.76476 58.1258 409.999 -0.555081 -0.202018 0.806892
2.58229 58.1563 409.885 -0.536916 -0.210583 0.816931
2.40004 58.1826 409.784 -0.523538 -0.229053 0.820636
2.21739 58.2121 409.675 -0.511395 -0.23136 0.827616
2.03489 58.2387 409.567 -0.506622 -0.225853 0.83206
1.85235 58.2654 409.467 -0.48939 -0.242398 0.8377
1.66988 58.2888 409.375 -0.544078 -0.214498 0.811153
1.48578 58.3293 409.233 -0.606163 -0.199528 0.769906
1.30136 58.3716 409.106 -0.577583 -0.225249 0.78464
1.11766 58.4065 408.98 -0.61904 -0.200489 0.759337
0.932519 58.4543 408.828 -0.624845 -0.220889 0.748851
0.74907 58.4828 408.704 -0.5842 -0.302285 0.753216
0.563771 58.5291 408.573 -0.603658 -0.304005 0.737006
0.378834 58.5685 408.438 -0.689992 -0.252742 0.678257
0.190727 58.6417 408.235 -0.763214 -0.236595 0.601271
0.00257947 58.7119 408.025 -0.759346 -0.251069 0.600298
-0.185872 58.7852 407.793 -0.744636 -0.213049 0.632556
-0.374142 58.8513 407.618 -0.767849 -0.171699 0.617194
-0.564468 58.9345 407.39 -0.772366 -0.20477 0.601266
-0.752525 58.9995 407.183 -0.792515 -0.21228 0.571714
-0.944831 59.0974 406.922 -0.842847 -0.173199 0.509521
-1.13861 59.2107 406.62 -0.859352 -0.193655 0.4733
-1.33345 59.3242 406.317 -0.854967 -0.228446 0.465666
-1.5276 59.4348 406.012 -0.814958 -0.245668 0.524872
-1.7166 59.4942 405.833 -0.824599 -0.280935 0.491031
-1.91433 59.6304 405.473 -0.85597 -0.243809 0.45593
-2.10813 59.7279 405.205 -0.825796 -0.25041 0.505328
-2.30159 59.8203 404.949 -0.756156 -0.350458 0.552637
-2.49163 59.8807 404.767 -0.674169 -0.368457 0.640106
-2.67912 59.9176 404.64 -0.515251 -0.404768 0.755433
-2.86504 59.9396 404.542 -0.246137 -0.420736 0.873154
-3.04821 59.9385 404.511 -0.116162 -0.357204 0.926775
-3.23083 59.9325 404.484 -0.150509 -0.318139 0.93602
-3.4134 59.9254 404.445 -0.162163 -0.28976 0.943262
-3.59698 59.9267 404.418 -0.0828287 -0.31024 0.947043
-3.77992 59.9196 404.408 -0.0309285 -0.301969 0.952816
-3.96129 59.9029 404.406 0.0114943 -0.289517 0.957104
-4.14195 59.8833 404.401 0.0643743 -0.285259 0.956286
-4.32291 59.8551 404.422 0.151092 -0.28464 0.946653
-4.50255 59.8327 404.445 0.154037 -0.271426 0.950053
-4.68391 59.8083 404.453 0.0907835 -0.231213 0.968658
-4.86435 59.7907 404.457 0.0574816 -0.193146 0.979485
-5.04593 59.7701 404.466 0.0656435 -0.179188 0.981622
-5.22693 59.75 404.477 0.0685259 -0.176128 0.981979
-5.40697 59.7272 404.479 0.0936081 -0.161053 0.982496
-5.58763 59.7035 404.498 0.105887 -0.127759 0.986137
-5.76837 59.6819 404.509 0.104385 -0.126193 0.986498
-5.9491 59.6591 404.525 0.100909 -0.131093 0.986221
-6.12921 59.6329 404.547 0.0354846 -0.117735 0.992411
-6.31043 59.6162 404.545 -0.0464553 -0.123805 0.991219
-6.49301 59.6071 404.525 -0.0951669 -0.127269 0.987292
-6.67678 59.606 404.49 -0.112454 -0.109906 0.98756
-7.40778 59.5724 404.414 -0.0361414 -0.167717 0.985172
-7.58941 59.556 404.411 -0.0186393 -0.151642 0.98826
-7.77008 59.543 404.398 -0.0707151 -0.148299 0.986411
-7.95294 59.5296 404.388 -0.195074 -0.0910429 0.976554
-8.14061 59.546 404.334 -0.265286 -0.0802903 0.960821
-8.32317 59.5416 404.283 -0.169913 -0.116331 0.978569
-8.50723 59.5364 404.266 -0.138175 -0.124412 0.982563
-8.6895 59.5283 404.235 -0.220938 -0.141285 0.965
-8.87409 59.5333 404.177 -0.251387 -0.14254 0.957333
-9.05855 59.5379 404.119 -0.27398 -0.130636 0.952822
-9.24643 59.551 404.071 -0.265453 -0.123513 0.956179
-9.42982 59.5474 404.032 -0.24472 -0.140943 0.959295
-9.61851 59.5632 403.979 -0.350282 -0.0744455 0.933681
-9.80476 59.579 403.89 -0.365305 -0.0332905 0.930293
-9.98852 59.5793 403.838 -0.275685 -0.0579371 0.9595
-10.1749 59.5907 403.77 -0.322472 -0.0429858 0.945602
-10.3612 59.5995 403.711 -0.356932 -0.0526902 0.932643
-10.5499 59.6236 403.615 -0.434677 -0.0281579 0.900146
-10.7382 59.6437 403.528 -0.437318 -0.036015 0.898586
-10.9266 59.6647 403.439 -0.424792 -0.0195109 0.905081
-11.1155 59.6876 403.345 -0.492676 -0.0534542 0.86857
-11.3039 59.7081 403.242 -0.513734 -0.133234 0.847541
-11.4951 59.7423 403.137 -0.461023 -0.0783984 0.883918
-11.684 59.7636 403.048 -0.439241 -0.0375241 0.897585
-11.8748 59.7954 402.933 -0.548565 0.000414853 0.836108
-12.0679 59.8391 402.791 -0.55467 0.0130349 0.831969
-12.2577 59.8635 402.694 -0.582251 -0.0338819 0.812303
-12.4533 59.9196 402.522 -0.548087 -0.0561901 0.834532
-12.6419 59.9364 402.443 -0.556947 -0.0459061 0.829278
-12.8381 59.994 402.268 -0.620095 -0.0902461 0.779319
-13.0334 60.0456 402.107 -0.610784 -0.0729531 0.78843
-13.2274 60.0898 401.963 -0.658339 -0.0446392 0.751397
-13.4221 60.1366 401.813 -0.669089 -0.0940401 0.737209
-13.6177 60.1889 401.634 -0.626119 -0.100361 0.773241
-13.8124 60.2324 401.508 -0.640533 -0.0787576 0.763881
-14.0099 60.2916 401.329 -0.665171 -0.077786 0.742629
-14.208 60.3525 401.146 -0.677752 -0.0671749 0.732216
-14.4071 60.4181 400.952 -0.69878 -0.0464161 0.713829
-14.6078 60.4909 400.741 -0.683936 0.00843589 0.729493
-14.8052 60.5452 400.573 -0.696428 0.0171208 0.717422
-15.0069 60.6206 400.356 -0.646567 0.0217882 0.762546
-15.2017 60.6602 400.223 -0.624966 0.129164 0.769892
-15.4058 60.7457 399.981 -0.64082 0.196269 0.742178
-15.6001 60.7829 399.849 -0.670563 0.197285 0.715139
-15.8061 60.8737 399.6 -0.731411 0.14669 0.665973
-16.0137 60.9733 399.326 -0.666399 0.187011 0.721761
-16.2114 61.0225 399.17 -0.620989 0.218787 0.752665
-16.4135 61.0923 398.966 -0.659209 0.214908 0.720595
-16.6176 61.171 398.74 -0.672851 0.234205 0.701726
-16.8205 61.2427 398.531 -0.694251 0.204503 0.690068
-17.0286 61.3385 398.265 -0.687858 0.202857 0.696922
-17.2287 61.3942 398.094 -0.712484 0.235848 0.660864
-17.435 61.4909 397.801 -0.705888 0.216997 0.674265
-17.6438 61.5744 397.589 -0.681179 0.2235 0.697168
-17.8527 61.6687 397.327 -0.724924 0.254188 0.640214
-18.0673 61.7884 397.004 -0.757718 0.227354 0.611697
7.41354 58.302 411.089 0.000401075 0.44773 0.894169
7.23587 58.277 411.107 0.0298888 0.289065 0.956843
6.70213 58.2201 411.118 0.00249589 0.121944 0.992534
6.52399 58.2036 411.116 -0.0772618 0.0817885 0.99365
6.3456 58.1928 411.091 -0.122268 0.0530737 0.991077
6.16697 58.1853 411.078 -0.121995 0.0412704 0.991672
5.98847 58.1759 411.059 -0.0614068 0.0333281 0.997556
5.81034 58.1596 411.057 -0.163649 0.036478 0.985844
5.63153 58.1584 410.995 -0.228833 0.0182628 0.973294
5.45194 58.1602 410.979 -0.196542 -0.0354734 0.979853
5.27326 58.1544 410.939 -0.202263 -0.0900406 0.975183
5.09411 58.1512 410.915 -0.257764 -0.098022 0.961223
4.91414 58.1624 410.843 -0.319701 -0.0657358 0.945235
4.73422 58.1698 410.791 -0.269014 -0.0511768 0.961776
4.55421 58.1794 410.729 -0.221349 -0.0590957 0.973403
4.37552 58.1683 410.714 -0.179672 -0.103606 0.978255
4.19646 58.1635 410.682 -0.206951 -0.123136 0.970571
4.01679 58.1651 410.641 -0.335133 -0.105181 0.936281
3.83536 58.1904 410.543 -0.471991 -0.127611 0.872319
3.65374 58.2169 410.44 -0.474766 -0.125763 0.87108
3.47273 58.2332 410.366 -0.318988 -0.135099 0.93808
3.29327 58.2306 410.328 -0.36825 -0.0921395 0.92515
3.11126 58.2587 410.223 -0.437124 -0.0562221 0.897642
2.93049 58.2701 410.156 -0.472873 -0.103504 0.87503
2.74798 58.3025 410.038 -0.547175 -0.140575 0.825129
2.56539 58.3335 409.928 -0.522226 -0.168926 0.835909
2.38291 58.3622 409.821 -0.521216 -0.173995 0.8355
2.1997 58.3971 409.707 -0.515448 -0.180557 0.837683
2.01785 58.4172 409.612 -0.494668 -0.183665 0.849453
1.83531 58.443 409.512 -0.509203 -0.164804 0.84472
1.65168 58.4799 409.386 -0.551463 -0.156167 0.819451
1.46864 58.5089 409.278 -0.590319 -0.209569 0.77949
1.28457 58.5492 409.139 -0.593314 -0.23125 0.771039
1.10021 58.5887 409.011 -0.605752 -0.197371 0.770785
0.916014 58.6269 408.879 -0.573384 -0.224913 0.78781
0.7323 58.6558 408.792 -0.580729 -0.287713 0.761561
0.547292 58.7009 408.628 -0.628718 -0.285383 0.723374
0.361924 58.7463 408.483 -0.6912 -0.234659 0.683504
0.174312 58.8127 408.288 -0.757214 -0.230397 0.611182
-0.0142108 58.8876 408.072 -0.775846 -0.240675 0.583214
-0.203896 58.9687 407.85 -0.76099 -0.233292 0.605366
-0.392262 59.0386 407.64 -0.753162 -0.178039 0.633284
-0.581117 59.1095 407.434 -0.767189 -0.178589 0.616058
-0.770677 59.1851 407.218 -0.804415 -0.215577 0.553573
-0.963953 59.2926 406.93 -0.835257 -0.16834 0.523457
-1.15514 59.3782 406.681 -0.850422 -0.18466 0.492629
-1.35016 59.4998 406.362 -0.854157 -0.23516 0.463806
-1.54351 59.6011 406.085 -0.799653 -0.264355 0.53914
-1.73298 59.6663 405.876 -0.83631 -0.197807 0.51133
-1.93263 59.816 405.515 -0.859869 -0.170445 0.481221
-2.12412 59.8936 405.267 -0.803033 -0.231163 0.549273
-2.31578 59.9716 405.058 -0.764793 -0.316755 0.561033
-2.50799 60.0511 404.832 -0.675086 -0.369749 0.638392
-2.69564 60.0907 404.69 -0.527534 -0.338637 0.779123
-2.88155 60.1145 404.603 -0.316165 -0.326463 0.890765
-3.06455 60.108 404.573 -0.160837 -0.325403 0.931797
-3.24841 60.1169 404.533 -0.180131 -0.313843 0.932231
-3.4307 60.1098 404.494 -0.138203 -0.27871 0.950379
-3.61347 60.096 404.486 -0.0897046 -0.285552 0.954156
-3.79644 60.092 404.456 -0.0418261 -0.285571 0.957444
-3.97888 60.0752 404.454 0.00885898 -0.250018 0.968201
-4.15877 60.0586 404.452 0.0707019 -0.23734 0.96885
-4.34013 60.0346 404.468 0.129434 -0.211147 0.968847
-4.52005 60.0103 404.482 0.0915347 -0.162726 0.982416
-4.70136 59.9907 404.489 0.0407143 -0.171472 0.984347
-4.88258 59.9742 404.486 0.0440448 -0.196383 0.979538
-5.0647 59.9549 404.494 0.0610742 -0.164354 0.984509
-5.24451 59.9368 404.499 0.0511106 -0.133071 0.989788
-5.42643 59.9173 404.507 0.0582588 -0.142153 0.988129
-5.60784 59.8998 404.508 0.104619 -0.13363 0.985494
-5.7869 59.8672 404.541 0.106 -0.1029 0.989028
-5.96783 59.8478 404.549 0.0748826 -0.0925768 0.992886
-6.14924 59.8288 404.55 0.0299655 -0.083728 0.996038
-6.33004 59.8144 404.545 -0.0528712 -0.0509994 0.997298
-6.51447 59.8078 404.53 -0.119305 -0.0449673 0.991839
-7.42503 59.7525 404.448 -0.05925 -0.0595644 0.996464
-7.60646 59.7365 404.443 -0.0322501 -0.0781436 0.99642
-7.78932 59.7259 404.435 -0.148126 -0.0653527 0.986807
-7.97374 59.7352 404.357 -0.215103 -0.0337596 0.976008
-8.1582 59.7308 404.336 -0.22314 -0.0631135 0.972741
-8.34073 59.7287 404.289 -0.159043 -0.125045 0.979321
-8.52543 59.7234 404.282 -0.128435 -0.121621 0.984232
-8.70858 59.7206 404.24 -0.22007 -0.0517144 0.974112
-8.89587 59.7295 404.203 -0.2617 -0.0404966 0.964299
-9.07863 59.7264 404.155 -0.281265 -0.114038 0.95283
-9.26356 59.7321 404.095 -0.247538 -0.127904 0.960398
-9.44906 59.7361 404.054 -0.31624 -0.0842614 0.94493
-9.63859 59.7674 403.941 -0.386708 -0.037012 0.921459
-9.82429 59.7745 403.885 -0.332981 -0.016232 0.942794
-10.0108 59.7856 403.821 -0.292628 -0.00868246 0.956187
-10.1935 59.7802 403.779 -0.316336 -0.0239497 0.948345
-10.3829 59.8025 403.7 -0.386477 -0.0366566 0.92157
-10.5705 59.8191 403.622 -0.428883 -0.0379666 0.902562
-10.7591 59.8417 403.529 -0.450091 -0.0419499 0.891997
-10.9501 59.8745 403.42 -0.402841 -0.0453001 0.914148
-11.1338 59.8699 403.384 -0.430977 -0.0454063 0.90122
-11.3232 59.9001 403.263 -0.543311 -0.0360451 0.838758
-11.5189 59.9561 403.102 -0.485075 0.00691667 0.874445
-11.7054 59.966 403.034 -0.473791 0.0547438 0.878934
-11.8994 60.0132 402.889 -0.541695 0.101977 0.834366
-12.0906 60.0458 402.773 -0.509456 0.0935918 0.855392
-12.2817 60.0777 402.658 -0.547564 0.0757066 0.833332
-12.4747 60.1188 402.522 -0.536725 0.0823698 0.839727
-12.6664 60.1526 402.403 -0.518724 0.0332771 0.854294
-12.8566 60.1772 402.306 -0.620898 -0.00929567 0.783836
-13.0534 60.2369 402.126 -0.6294 -0.042978 0.775892
-13.247 60.2783 401.989 -0.630441 -0.0563422 0.77419
-13.4449 60.3426 401.798 -0.657232 -0.0405505 0.752597
-13.6401 60.3907 401.645 -0.634087 -0.0510227 0.771577
-13.8369 60.447 401.474 -0.638911 -0.0518238 0.767533
-14.0332 60.4995 401.31 -0.663958 -0.017827 0.747558
-14.2302 60.5549 401.14 -0.685903 -0.0295457 0.727093
-14.4291 60.6192 400.949 -0.716268 0.0096758 0.697758
-14.6315 60.7001 400.719 -0.675844 0.0813355 0.732544
-14.8278 60.7491 400.565 -0.674028 0.104724 0.731245
-15.0309 60.8314 400.331 -0.68943 0.100703 0.717318
-15.2335 60.9106 400.105 -0.669744 0.150095 0.727265
-15.4347 60.9786 399.91 -0.649394 0.200577 0.733524
-15.6358 61.05 399.697 -0.642006 0.236354 0.72936
-15.837 61.1183 399.497 -0.718496 0.204133 0.664901
-16.0448 61.2183 399.222 -0.678495 0.175306 0.713381
-16.2408 61.2589 399.086 -0.634645 0.20419 0.74534
-16.4477 61.3519 398.828 -0.676988 0.214886 0.703926
-16.6487 61.4148 398.64 -0.666511 0.213843 0.714167
-17.4704 61.7423 397.709 -0.671042 0.292726 0.681186
-17.683 61.8552 397.403 -0.668274 0.339665 0.661844
-17.8921 61.9502 397.14 -0.697902 0.309011 0.646099
6.68393 58.4228 411.099 0.0340779 0.169082 0.985013
6.50598 58.4047 411.101 -0.0487779 0.0681276 0.996483
6.32773 58.39 411.095 -0.111644 0.0927863 0.989407
6.14887 58.3868 411.062 -0.110821 0.10934 0.987807
5.97046 58.3741 411.051 -0.0780992 0.0658933 0.994766
5.79184 58.3658 411.03 -0.150157 0.0232198 0.988389
5.61342 58.3548 411.009 -0.169872 -0.00958965 0.98542
5.43443 58.3503 410.986 -0.143193 -0.00681751 0.989671
5.25572 58.3426 410.961 -0.198643 0.00476 0.98006
5.07563 58.3534 410.904 -0.291139 0.0341362 0.956072
4.89588 58.3611 410.838 -0.324168 0.0654985 0.943729
4.71582 58.3704 410.778 -0.255534 0.0120314 0.966725
4.5371 58.3604 410.761 -0.172097 -0.0722446 0.982427
4.35789 58.3572 410.728 -0.162478 -0.0910085 0.982506
4.17856 58.3558 410.688 -0.235027 -0.0368458 0.97129
3.99822 58.366 410.628 -0.318273 -0.0231401 0.947717
3.81859 58.3668 410.585 -0.469161 -0.0531738 0.88151
3.63579 58.4086 410.448 -0.459592 -0.0896181 0.883597
3.45562 58.4147 410.394 -0.3627 -0.123004 0.923753
3.27349 58.445 410.283 -0.404708 -0.065474 0.912099
3.09289 58.4548 410.221 -0.395477 -0.0390476 0.917645
2.91182 58.4695 410.146 -0.441601 -0.0650067 0.894854
2.72987 58.4934 410.053 -0.524384 -0.113118 0.843935
2.54729 58.525 409.937 -0.517158 -0.136858 0.844877
2.36523 58.5484 409.842 -0.5142 -0.11839 0.84946
2.18289 58.5754 409.731 -0.513174 -0.162993 0.842666
1.9994 58.6104 409.629 -0.508857 -0.164037 0.845078
1.81654 58.6406 409.508 -0.514706 -0.137522 0.846265
1.6347 58.6573 409.428 -0.509434 -0.151916 0.846994
1.45172 58.6856 409.322 -0.574248 -0.167154 0.801436
1.26712 58.7303 409.178 -0.61461 -0.198066 0.76356
1.08257 58.773 409.038 -0.58754 -0.163172 0.792573
0.898864 58.805 408.924 -0.524946 -0.142147 0.839181
0.715613 58.8295 408.82 -0.577289 -0.20261 0.791004
0.53023 58.8783 408.673 -0.655546 -0.227145 0.720183
0.344312 58.9295 408.513 -0.687123 -0.222946 0.691488
0.157736 58.9856 408.342 -0.75076 -0.223064 0.621773
-0.0313522 59.0653 408.117 -0.780397 -0.227718 0.582345
-0.220617 59.1446 407.89 -0.784547 -0.215169 0.581539
-0.411116 59.2333 407.644 -0.752692 -0.180355 0.633189
-0.597639 59.2819 407.488 -0.747631 -0.193194 0.635392
-0.788212 59.3663 407.263 -0.818262 -0.221373 0.53051
-0.980928 59.4712 406.965 -0.828612 -0.21164 0.518276
-1.17229 59.5579 406.727 -0.834302 -0.179768 0.521175
-1.36618 59.6646 406.437 -0.853706 -0.19715 0.481993
-1.55965 59.7707 406.128 -0.818783 -0.272037 0.50556
-1.75308 59.8689 405.88 -0.843066 -0.211249 0.494585
-1.94915 59.9896 405.559 -0.848786 -0.206406 0.486784
-2.14178 60.0763 405.318 -0.773625 -0.265133 0.575508
-2.33195 60.1386 405.125 -0.761031 -0.250473 0.59841
-2.52397 60.2183 404.904 -0.712811 -0.282477 0.641955
-2.71249 60.2675 404.758 -0.546752 -0.325476 0.771445
-2.89822 60.2852 404.656 -0.313769 -0.319724 0.89405
-3.08212 60.287 404.628 -0.175711 -0.282047 0.943173
-3.26502 60.2845 404.59 -0.215278 -0.288546 0.93295
-3.44735 60.2806 404.537 -0.125589 -0.314425 0.940938
-3.63047 60.2741 404.53 -0.08774 -0.270545 0.958701
-3.81329 60.2691 404.501 -0.0790416 -0.208778 0.974764
-3.99576 60.2534 404.494 -0.00190506 -0.206855 0.97837
-4.17649 60.2413 404.491 0.0460943 -0.202895 0.978115
-4.35802 60.2174 404.498 0.0716765 -0.184602 0.980196
-4.53823 60.1986 404.496 0.0930353 -0.143224 0.985308
-4.71903 60.1723 404.532 0.0628881 -0.125846 0.990055
-4.90058 60.1561 404.528 0.00867911 -0.157319 0.98751
-5.08239 60.1416 404.523 0.0279517 -0.170211 0.985011
-5.26428 60.1239 404.524 0.0633305 -0.15205 0.986342
-5.44431 60.0994 404.544 0.053259 -0.13325 0.98965
-5.62524 60.082 404.543 0.0744472 -0.150278 0.985837
-5.80665 60.0609 404.551 0.0951985 -0.131985 0.98667
-5.98719 60.0429 404.56 0.0571248 -0.065884 0.996191
-6.16871 60.0162 404.578 -0.0139023 -0.081347 0.996589
-6.35003 60.0113 404.549 -0.0639102 -0.0893694 0.993946
-6.5336 59.9991 404.547 -0.0801116 -0.0845475 0.993194
-7.44626 59.9524 404.447 -0.0350951 -0.0736081 0.99667
-7.62697 59.9401 404.436 -0.061351 -0.0308271 0.99764
-7.81269 59.9386 404.412 -0.18883 0.0143169 0.981905
-7.99469 59.9294 404.383 -0.189453 -0.029084 0.981459
-8.17937 59.9238 404.372 -0.160689 -0.0867136 0.983188
-8.36119 59.9192 404.33 -0.160531 -0.0899206 0.982926
-8.54749 59.92 404.304 -0.209659 -0.0372699 0.977064
-8.72971 59.9262 404.221 -0.237121 -0.017574 0.971321
-8.9147 59.9221 404.202 -0.189738 -0.0297713 0.981383
-9.09932 59.9231 404.162 -0.263827 -0.02998 0.964104
-9.28441 59.9283 404.109 -0.293219 -0.0386487 0.955264
-9.47 59.9388 404.036 -0.361969 -0.0192691 0.931991
-9.65729 59.9526 403.972 -0.396702 -0.0251642 0.917603
-9.84539 59.9743 403.882 -0.335875 -0.0321659 0.941357
-10.031 59.9806 403.828 -0.280074 -0.013936 0.959877
-10.2169 59.9875 403.772 -0.310556 -0.00578132 0.950538
-10.4035 59.9991 403.705 -0.386053 0.00344673 0.92247
-10.592 60.0212 403.614 -0.425555 -0.0167863 0.904777
-10.778 60.0353 403.525 -0.442871 -0.0409633 0.895649
-10.9672 60.0561 403.446 -0.401289 -0.00656646 0.915928
-11.1599 60.0929 403.338 -0.438671 0.0730437 0.895674
-11.347 60.1138 403.228 -0.542066 0.122597 0.831345
-11.5414 60.1602 403.096 -0.504576 0.106393 0.856787
-11.731 60.1873 402.987 -0.519454 0.0976846 0.848897
-11.9255 60.2397 402.825 -0.527031 0.112838 0.842322
-12.1138 60.2555 402.748 -0.497008 0.117045 0.859816
-12.3079 60.3035 402.596 -0.546604 0.0986698 0.831558
-12.4997 60.3385 402.474 -0.496416 0.0659673 0.865575
-12.687 60.3495 402.403 -0.492522 0.0609568 0.868163
-12.8827 60.4018 402.247 -0.591029 0.039958 0.80566
-13.0768 60.4468 402.101 -0.611764 0.0207473 0.790768
-13.2711 60.4919 401.956 -0.631241 0.0215992 0.775286
-13.4674 60.5472 401.787 -0.647745 -0.0313398 0.761212
-13.6621 60.5922 401.641 -0.633013 -0.0427814 0.772958
-13.8579 60.6433 401.482 -0.652152 0.0159764 0.75792
-14.0563 60.7063 401.294 -0.655683 0.00483035 0.75502
-14.253 60.7599 401.129 -0.705591 0.00345485 0.708611
-14.4583 60.8578 400.859 -0.741976 0.0290987 0.669795
-14.6598 60.9338 400.641 -0.689677 0.0805873 0.719619
-14.8594 60.9993 400.447 -0.659652 0.161438 0.734028
-15.0593 61.0649 400.253 -0.683829 0.202145 0.701082
-15.2618 61.1429 400.03 -0.669877 0.231285 0.70553
-15.4646 61.2211 399.807 -0.659141 0.239266 0.71294
-15.6667 61.2947 399.594 -0.643134 0.245941 0.725184
-15.8662 61.3544 399.414 -0.686481 0.216375 0.694209
-16.0717 61.443 399.166 -0.675571 0.205868 0.70797
-16.271 61.5048 398.969 -0.635795 0.263393 0.725526
-16.4766 61.5858 398.751 -0.66641 0.232687 0.708346
-16.6792 61.6562 398.546 -0.684281 0.196034 0.702375
6.4879 58.6062 411.086 -0.0963599 0.335284 0.937176
6.30855 58.6104 411.036 -0.133399 0.260507 0.956212
6.13036 58.5941 411.034 -0.0650272 0.220864 0.973134
5.95249 58.5721 411.044 -0.045192 0.152598 0.987255
5.77434 58.5558 411.042 -0.11759 0.0889065 0.989075
5.59521 58.5546 411.004 -0.169216 0.063745 0.983515
5.41595 58.5547 410.964 -0.163534 0.090044 0.98242
5.23734 58.5459 410.935 -0.238121 0.123788 0.963315
5.05689 58.5615 410.868 -0.320771 0.114827 0.940171
4.87776 58.5614 410.809 -0.263573 0.0529604 0.963184
4.69813 58.56 410.796 -0.160279 -0.0467325 0.985965
4.51926 58.5528 410.767 -0.151541 -0.0778852 0.985378
4.33991 58.5506 410.734 -0.226107 -0.0319281 0.973579
4.15993 58.5578 410.674 -0.257071 -0.018937 0.966207
3.98061 58.554 410.644 -0.301151 -0.00104922 0.953576
3.79923 58.5778 410.549 -0.427666 0.0618767 0.901816
3.61845 58.5925 410.475 -0.41956 0.025559 0.907368
3.43784 58.6046 410.403 -0.414225 -0.0576991 0.908344
3.25623 58.6273 410.314 -0.42955 -0.113485 0.895884
3.07519 58.6423 410.239 -0.377233 -0.0860042 0.922116
2.89396 58.6588 410.16 -0.402564 -0.051429 0.913946
2.7131 58.6704 410.091 -0.507114 -0.135169 0.851214
2.52944 58.7136 409.953 -0.531633 -0.146084 0.834281
2.34733 58.7373 409.857 -0.480086 -0.147611 0.864713
2.16542 58.7576 409.77 -0.511704 -0.129478 0.849349
1.98261 58.7882 409.649 -0.529188 -0.14339 0.836301
1.79973 58.8168 409.552 -0.505429 -0.228093 0.832175
1.61639 58.8498 409.436 -0.49911 -0.205651 0.841782
1.43266 58.8843 409.332 -0.550069 -0.11852 0.826666
1.25005 58.9085 409.219 -0.633601 -0.101964 0.766912
1.06358 58.9717 409.032 -0.598509 -0.118749 0.792266
0.880157 58.9988 408.941 -0.476309 -0.123242 0.870598
0.698526 59.0091 408.865 -0.55796 -0.152345 0.815765
0.513205 59.0556 408.717 -0.655559 -0.198514 0.728584
0.327254 59.1069 408.557 -0.68016 -0.163707 0.71455
0.140728 59.1626 408.387 -0.742375 -0.124896 0.658241
-0.0485393 59.2439 408.158 -0.784015 -0.154352 0.601245
-0.237787 59.3227 407.935 -0.798613 -0.185072 0.572683
-0.428598 59.4146 407.68 -0.747638 -0.19597 0.634534
-0.614936 59.4607 407.533 -0.724791 -0.154675 0.671382
-0.804892 59.5384 407.308 -0.820561 -0.171756 0.545142
-0.998672 59.6526 407.021 -0.837958 -0.200555 0.507547
-1.19132 59.7532 406.731 -0.826528 -0.172918 0.535678
-1.38301 59.8426 406.483 -0.835801 -0.179123 0.518992
-1.57683 59.9461 406.226 -0.836552 -0.233726 0.495533
-1.77034 60.0474 405.925 -0.842457 -0.231765 0.486365
-1.96405 60.1435 405.647 -0.837316 -0.255145 0.483531
-2.15869 60.254 405.363 -0.776829 -0.32848 0.53725
-2.34925 60.3191 405.171 -0.751397 -0.283461 0.595863
-2.54072 60.3943 404.948 -0.708036 -0.251734 0.659784
-2.72893 60.4316 404.815 -0.562735 -0.321389 0.761603
-2.91611 60.4683 404.702 -0.347066 -0.322632 0.880599
-3.09896 60.464 404.673 -0.169688 -0.283266 0.94391
-3.28184 60.4613 404.634 -0.185719 -0.284799 0.940424
-3.46406 60.4521 404.613 -0.170388 -0.250649 0.952965
-3.64902 60.4614 404.559 -0.151841 -0.222084 0.963132
-3.83159 60.4559 404.533 -0.0741515 -0.210602 0.974756
-4.01343 60.4394 404.531 -0.000331744 -0.214934 0.976628
-4.19482 60.4227 404.529 0.0309599 -0.218554 0.975334
-4.37648 60.4041 404.534 0.033201 -0.206705 0.97784
-4.55727 60.3862 404.531 0.0753947 -0.17974 0.980821
-4.73853 60.3666 404.54 0.0901248 -0.130388 0.987358
-4.91917 60.3433 404.555 0.0196068 -0.111263 0.993598
-5.10012 60.3258 404.556 0.00976383 -0.138346 0.990336
-5.2817 60.3058 404.556 0.0416114 -0.145976 0.988413
-5.46205 60.2883 404.554 0.0710335 -0.11001 0.991389
-5.64353 60.2646 404.579 0.0509114 -0.0813816 0.995382
-5.82544 60.2478 404.577 0.0169228 -0.095505 0.995285
-6.00602 60.2359 404.568 0.0682956 -0.0870864 0.993857
-6.18769 60.2056 404.592 -0.0127103 -0.0566889 0.998311
-6.36827 60.202 404.567 -0.0726708 -0.0632865 0.995346
-6.55161 60.1849 404.567 -0.0302173 -0.0825545 0.996128
-7.46429 60.1368 404.48 -0.0859352 -0.0538939 0.994842
-7.64763 60.1365 404.431 -0.128694 -0.00259519 0.991681
-7.83148 60.1296 404.42 -0.140537 -0.010928 0.990015
-8.01348 60.1226 404.38 -0.123884 -0.0159393 0.992169
-8.19725 60.1153 404.368 -0.158963 -0.00596529 0.987267
-8.38109 60.1172 404.314 -0.221285 0.0167859 0.975065
-8.56757 60.1257 404.269 -0.231638 0.0617952 0.970837
-8.75074 60.1185 404.247 -0.221261 0.00788493 0.975183
-8.93501 60.1188 404.205 -0.199393 -0.0250473 0.979599
-9.12012 60.1231 404.156 -0.256057 0.0348817 0.966032
-9.30666 60.133 404.101 -0.315957 0.0369749 0.948053
-9.49218 60.1424 404.032 -0.358255 0.0377868 0.932859
-9.67829 60.1566 403.95 -0.381694 0.0317202 0.923744
-9.86687 60.1763 403.875 -0.342481 0.0595429 0.937636
-10.0517 60.1804 403.818 -0.290518 0.0501076 0.955557
-10.2388 60.1921 403.758 -0.326779 0.0292702 0.944647
-10.4262 60.2081 403.681 -0.360749 0.107067 0.926497
-10.6155 60.2268 403.615 -0.394835 0.093176 0.914015
-10.8011 60.2386 403.53 -0.45648 0.0715458 0.886852
-10.9936 60.2829 403.388 -0.456091 0.135851 0.879503
-11.1836 60.307 403.302 -0.489328 0.154482 0.858309
-11.3737 60.3454 403.15 -0.520564 0.133285 0.843356
-11.5651 60.3759 403.051 -0.496964 0.127921 0.858291
-11.7568 60.4124 402.926 -0.527044 0.134772 0.839084
-11.9474 60.4418 402.818 -0.518275 0.14503 0.842827
-12.1411 60.4885 402.669 -0.484292 0.150785 0.861815
-12.329 60.5023 402.595 -0.50392 0.137099 0.8528
-12.5227 60.5439 402.466 -0.482866 0.11877 0.867603
-12.7117 60.5698 402.348 -0.480965 0.125221 0.867751
-12.9038 60.599 402.252 -0.565581 0.109525 0.817388
-13.0996 60.653 402.086 -0.602642 0.0862366 0.793339
-13.2948 60.7029 401.929 -0.594132 0.0427945 0.803229
-13.4868 60.7347 401.815 -0.631707 0.019284 0.774968
-13.687 60.8093 401.601 -0.655319 0.0507293 0.753647
-13.8847 60.8698 401.419 -0.627121 0.107761 0.771432
-14.0793 60.9132 401.278 -0.6302 0.149012 0.762
-14.2792 60.9832 401.074 -0.683542 0.172976 0.709119
-14.4794 61.054 400.868 -0.733637 0.129707 0.667047
-14.6849 61.1506 400.602 -0.717667 0.123928 0.685271
-14.8872 61.2301 400.376 -0.663531 0.249441 0.70534
-15.0921 61.3212 400.122 -0.654867 0.314527 0.687184
-15.2947 61.4047 399.875 -0.614747 0.365913 0.698709
6.28929 58.8314 410.976 -0.081672 0.417141 0.905164
6.11124 58.8123 410.98 0.0121245 0.282086 0.959312
5.9336 58.7858 411.001 0.00712112 0.262138 0.965004
5.75535 58.7694 410.999 -0.103337 0.281066 0.954109
5.57657 58.7622 410.975 -0.194527 0.238777 0.951391
5.39719 58.7635 410.932 -0.2099 0.167109 0.963336
5.21747 58.768 410.889 -0.239494 0.153838 0.958633
5.03838 58.7649 410.848 -0.249312 0.125703 0.96023
4.8598 58.7537 410.829 -0.151024 0.011859 0.988459
4.6808 58.746 410.812 -0.131072 9.98665e-005 0.991373
4.50155 58.7434 410.776 -0.20783 0.0213803 0.977931
4.3214 58.7515 410.722 -0.241892 0.0344663 0.969691
4.14225 58.7466 410.69 -0.276804 0.0536638 0.959427
3.96115 58.767 410.603 -0.373733 0.0820144 0.923903
3.78117 58.7764 410.519 -0.389357 0.095972 0.916074
3.59952 58.7963 410.458 -0.338846 0.0500528 0.93951
3.41934 58.8023 410.401 -0.360987 0.0202944 0.93235
3.23877 58.812 410.338 -0.445221 -0.032575 0.894828
3.05578 58.8512 410.207 -0.407134 -0.0334429 0.912756
2.87611 58.8486 410.171 -0.327036 -0.00156572 0.94501
2.69506 58.8609 410.105 -0.488559 0.00569263 0.872512
2.51163 58.9016 409.97 -0.519295 -0.0145557 0.854471
2.33027 58.9162 409.896 -0.492927 -0.10469 0.863749
2.14581 58.965 409.749 -0.499796 -0.107991 0.859385
1.96532 58.9686 409.694 -0.463645 -0.11912 0.877977
1.7831 58.9914 409.596 -0.52207 -0.171394 0.835504
1.59931 59.0283 409.476 -0.563662 -0.159935 0.810374
