-3.90411 -3.65659 356.112 0.146272 0.0653156 -0.987086
-3.6665 -3.6726 356.132 0.215674 0.0675344 -0.974127
-3.48646 -3.68928 356.203 0.288328 0.0562786 -0.955876
-3.27739 -3.70561 356.247 0.175515 0.0164912 -0.984339
-3.0535 -3.72171 356.279 0.138848 0.0236049 -0.990032
-2.82597 -3.73786 356.307 0.210633 0.01661 -0.977424
-2.63708 -3.75554 356.368 0.229711 -0.0251008 -0.972935
-2.42476 -3.77044 356.41 0.165086 0.0371754 -0.985578
-2.19986 -3.78669 356.44 0.1372 0.0758283 -0.987637
-1.97218 -3.80182 356.467 0.133378 0.0618429 -0.989134
-1.76975 -3.81807 356.516 0.158762 0.0870289 -0.983474
-1.52895 -3.83407 356.531 0.110302 0.0725715 -0.991245
-1.29073 -3.85056 356.548 0.176381 0.0858903 -0.980567
-1.10218 -3.86656 356.609 0.257421 0.149979 -0.954589
-0.89126 -3.8839 356.65 0.311712 0.136622 -0.940303
-0.723036 -3.90007 356.73 0.246679 0.0825783 -0.965573
-0.4893 -3.91587 356.75 0.0939542 0.0576653 -0.993905
-0.257498 -3.9324 356.772 0.182795 0.0429565 -0.982212
-0.0476647 -3.94796 356.814 0.298551 -0.0175644 -0.954232
0.148139 -3.96403 356.868 0.183323 -0.0772455 -0.980013
0.357543 -3.9803 356.909 0.13314 -0.0054597 -0.991082
0.56622 -3.99648 356.952 0.245227 0.134562 -0.960082
0.73934 -4.01317 357.026 0.319207 0.192372 -0.927955
0.934114 -4.0293 357.08 0.221208 0.164997 -0.961168
1.16957 -4.04504 357.098 0.213947 0.136604 -0.967247
1.33079 -4.06188 357.182 0.31281 0.170596 -0.93437
1.54695 -4.07766 357.217 0.294817 0.123399 -0.947552
1.73684 -4.09397 357.275 0.201868 0.044209 -0.978414
1.96137 -4.1095 357.302 0.130499 0.0551911 -0.989911
2.14907 -4.12625 357.362 0.221891 0.158492 -0.962104
2.35273 -4.14218 357.407 0.248617 0.229847 -0.940936
2.57178 -4.15742 357.438 0.275455 0.164345 -0.947162
2.75354 -4.17455 357.503 0.292762 0.116637 -0.949045
2.95705 -4.1897 357.549 0.216224 0.0772653 -0.973282
3.1686 -4.20637 357.586 0.325845 0.112928 -0.938654
3.31712 -4.22313 357.681 0.244635 0.169821 -0.954628
3.56705 -4.23849 357.683 0.163309 0.143066 -0.976146
3.75913 -4.25475 357.738 0.232583 0.108539 -0.966501
3.97277 -4.27043 357.773 0.196434 0.0600426 -0.978677
4.17868 -4.28655 357.815 0.254205 0.0395231 -0.966342
4.38122 -4.30248 357.86 0.315129 0.0171516 -0.948894
4.54712 -4.31957 357.938 0.30315 0.0631064 -0.950851
4.73725 -4.33615 357.994 0.243032 0.0807752 -0.966649
4.94374 -4.35053 358.036 0.237458 0.0569252 -0.969729
5.13511 -4.36734 358.09 0.37071 0.049581 -0.927424
5.29049 -4.38369 358.178 0.413351 0.0410571 -0.909646
5.47052 -4.39993 358.243 0.234395 0.0689801 -0.969691
5.68572 -4.41517 358.275 0.155363 0.0795704 -0.984648
5.91025 -4.43282 358.298 0.221915 0.101058 -0.969815
6.08993 -4.44798 358.363 0.270722 0.131816 -0.95359
6.2836 -4.46349 358.415 0.354246 0.10795 -0.928901
6.45449 -4.47978 358.488 0.270061 0.051952 -0.961441
6.67099 -4.49547 358.518 0.253409 0.0622768 -0.965352
6.84331 -4.51177 358.59 0.30605 0.0236471 -0.951722
7.03345 -4.52848 358.644 0.233171 0.0372529 -0.971722
7.2391 -4.54412 358.684 0.24116 0.103126 -0.964991
7.42282 -4.55904 358.744 0.293705 0.140232 -0.945554
7.6106 -4.57592 358.801 0.371635 0.143136 -0.917278
7.78588 -4.59246 358.868 0.335669 0.107512 -0.935825
7.96464 -4.60821 358.933 0.288869 0.130351 -0.948453
8.16309 -4.6239 358.979 0.248603 0.10255 -0.963161
8.35245 -4.63987 359.033 0.247326 0.14704 -0.95771
8.53868 -4.65588 359.091 0.271322 0.200629 -0.941346
8.74969 -4.67142 359.124 0.208184 0.112399 -0.97161
8.95539 -4.68719 359.163 0.21588 0.0803865 -0.973105
9.1527 -4.703 359.209 0.308105 0.0863418 -0.947426
9.31674 -4.71946 359.287 0.336427 0.115248 -0.934631
9.50075 -4.73475 359.346 0.302031 0.151448 -0.941191
9.68584 -4.75031 359.403 0.269221 0.127824 -0.954558
9.89446 -4.76675 359.438 0.351072 0.0609232 -0.934364
10.0523 -4.78263 359.521 0.385119 0.0148744 -0.922747
10.2267 -4.79936 359.588 0.3433 0.0605768 -0.93727
10.4046 -4.81521 359.652 0.235164 0.0942143 -0.967379
10.6275 -4.83084 359.673 0.18129 0.0777492 -0.980352
10.812 -4.8474 359.73 0.262824 0.141757 -0.954373
11.0116 -4.86311 359.773 0.233997 0.134103 -0.962944
11.2119 -4.87803 359.815 0.258042 0.0615658 -0.96417
11.3768 -4.8942 359.891 0.228802 0.123597 -0.965595
11.6081 -4.90929 359.903 0.276113 0.112897 -0.954472
11.7722 -4.92554 359.979 0.322847 0.107754 -0.940297
11.9696 -4.9414 360.023 0.318509 0.12242 -0.939982
12.139 -4.9575 360.094 0.409039 0.025624 -0.912157
12.3025 -4.97358 360.171 0.291232 0.024371 -0.956342
12.5202 -4.99006 360.195 0.235503 0.0862106 -0.968042
12.6825 -5.00454 360.273 0.285928 0.140044 -0.947962
12.8731 -5.02073 360.323 0.381106 0.140212 -0.913838
13.0112 -5.03751 360.423 0.273297 0.168019 -0.947142
13.2555 -5.05214 360.421 0.238205 0.203222 -0.949715
13.4177 -5.06832 360.499 0.325137 0.141954 -0.934952
13.6161 -5.08391 360.541 0.233832 0.0736272 -0.969485
13.8174 -5.09936 360.58 0.246666 0.034715 -0.968479
13.9962 -5.1146 360.641 0.281186 0.0677157 -0.957261
14.1836 -5.13133 360.693 0.212286 0.120863 -0.969704
14.3781 -5.14649 360.738 0.321918 0.165927 -0.932114
14.5455 -5.16258 360.809 0.415185 0.209827 -0.885209
14.7237 -5.17914 360.87 0.29152 0.173295 -0.940736
14.9033 -5.19475 360.93 0.231101 0.137366 -0.963184
15.1128 -5.21012 360.96 0.334727 0.0952368 -0.93749
15.2697 -5.22573 361.041 0.50799 0.0353843 -0.860636
15.4158 -5.24212 361.133 0.292965 0.030099 -0.955649
15.6357 -5.25718 361.153 0.196362 0.0332043 -0.979969
15.8148 -5.2733 361.212 0.324479 0.0568869 -0.944181
15.9918 -5.28878 361.273 0.288355 0.00294853 -0.957519
16.1723 -5.30408 361.331 0.2319 -0.0106431 -0.972681
16.3819 -5.31953 361.36 0.262524 0.0272193 -0.964542
16.5565 -5.33556 361.423 0.294732 0.0215173 -0.955338
16.7478 -5.35142 361.47 0.386272 0.00562253 -0.922368
16.8864 -5.36775 361.568 0.420134 0.0455867 -0.906316
17.0579 -5.38382 361.634 0.337987 0.111082 -0.934572
17.2423 -5.39905 361.687 0.390781 0.0705709 -0.917774
17.4098 -5.41582 361.757 0.308125 0.0121417 -0.951268
17.6134 -5.43023 361.791 0.23832 -0.0235439 -0.970901
17.7885 -5.44672 361.853 0.329264 -0.00136155 -0.944237
17.9503 -5.46105 361.928 0.303104 0.0560139 -0.95131
18.1426 -5.47663 361.973 0.356561 0.0538883 -0.932717
18.2968 -5.49356 362.055 0.390136 0.0377858 -0.919982
18.4957 -5.50886 362.093 0.310567 -0.033985 -0.949944
18.6535 -5.52493 362.172 0.426959 -0.0745129 -0.901196
18.8076 -5.54106 362.254 0.380517 -0.0527906 -0.923266
18.9869 -5.5567 362.311 0.291224 -0.0137892 -0.956556
19.157 -5.57246 362.378 0.310676 0.0550727 -0.948919
19.3447 -5.58798 362.426 0.408687 0.0422875 -0.911694
19.4839 -5.60487 362.523 0.373342 0.0278484 -0.927276
19.6737 -5.61978 362.569 0.305837 0.0639827 -0.949932
19.8394 -5.63602 362.639 0.414367 0.105254 -0.904003
20.0074 -5.65146 362.707 0.361767 0.048448 -0.931009
20.194 -5.66742 362.756 0.321127 -0.0210536 -0.946802
20.3588 -5.6828 362.827 0.389306 0.00345684 -0.921102
20.5145 -5.69881 362.907 0.448941 0.029978 -0.893058
20.6729 -5.71479 362.984 0.323775 -0.000599755 -0.946134
20.865 -5.73001 363.027 0.377264 0.00667447 -0.926082
21.007 -5.74596 363.12 0.530223 0.0172298 -0.847683
21.1551 -5.76176 363.208 0.466253 -0.00714236 -0.884623
21.3184 -5.77859 363.279 0.435692 -0.00156398 -0.900094
21.4792 -5.7949 363.353 0.411687 -0.0115951 -0.911252
21.6397 -5.81127 363.428 0.405243 0.0136719 -0.914107
21.8016 -5.82538 363.501 0.452107 0.013418 -0.891863
21.9506 -5.84222 363.587 0.380055 0.0101533 -0.924908
22.1354 -5.85765 363.636 0.41764 0.0094412 -0.908564
22.2774 -5.87392 363.729 0.497332 -0.0392984 -0.86667
22.4358 -5.88985 363.805 0.459245 -0.0570257 -0.886477
22.5871 -5.90635 363.889 0.450712 -0.0456457 -0.891501
22.7397 -5.92196 363.971 0.478684 -0.0126617 -0.877896
22.8833 -5.9376 364.062 0.460254 0.022633 -0.887499
23.0475 -5.95397 364.132 0.458558 0.0345727 -0.887992
23.2047 -5.9699 364.209 0.44647 -0.0253653 -0.894439
23.3655 -5.98555 364.282 0.479563 -0.0657598 -0.87504
23.4969 -6.00192 364.385 0.589382 -0.0306487 -0.807273
23.6312 -6.01862 364.485 0.571391 0.00797515 -0.820639
23.7814 -6.03415 364.569 0.434163 -0.0114654 -0.900761
23.9453 -6.05046 364.639 0.362096 -0.00535229 -0.932126
24.1072 -6.06606 364.711 0.461291 0.0393322 -0.886376
24.2475 -6.08144 364.805 0.539619 0.0837288 -0.837735
24.3803 -6.09826 364.907 0.573368 0.125358 -0.809651
24.5272 -6.11506 364.994 0.528465 0.0953629 -0.843582
-9.64314 -3.0933 355.637 0.312307 0.412213 -0.855888
-9.42642 -3.10997 355.679 0.172267 0.329398 -0.928343
-9.16296 -3.12703 355.681 0.0091217 0.19305 -0.981147
-8.88785 -3.14228 355.672 0.0361802 0.137831 -0.989795
-8.63467 -3.15884 355.683 0.0238322 0.0722341 -0.997103
-8.36233 -3.17469 355.676 0.00145267 0.0221448 -0.999754
-8.10354 -3.19136 355.681 0.0134506 0.0119455 -0.999838
-7.84946 -3.20706 355.69 0.0118653 0.0595346 -0.998156
-7.57937 -3.22308 355.684 0.080085 0.0518725 -0.995437
-7.35228 -3.23962 355.716 0.0552007 0.0105364 -0.99842
-7.09433 -3.25575 355.721 0.0119668 0.0437653 -0.99897
-6.84643 -3.2718 355.734 0.0611674 0.0760275 -0.995228
-6.59847 -3.28817 355.747 0.125186 0.072316 -0.989494
-6.36981 -3.30506 355.777 0.086877 0.0678109 -0.993908
-6.11896 -3.3206 355.787 0.064728 0.0728804 -0.995238
-5.89054 -3.33701 355.816 0.146739 0.0832149 -0.985669
-5.67808 -3.35262 355.86 0.148132 0.121584 -0.981465
-5.43992 -3.37062 355.88 0.14471 0.132124 -0.980613
-5.2225 -3.38701 355.919 0.201822 0.159127 -0.966409
-5.01125 -3.40296 355.963 0.142572 0.15322 -0.977853
-4.76313 -3.41813 355.974 0.101443 0.122091 -0.987321
-4.54489 -3.43502 356.012 0.157453 0.14674 -0.976563
-4.32051 -3.45118 356.044 0.173485 0.124794 -0.976898
-4.10627 -3.46799 356.085 0.197015 0.0837025 -0.976821
-3.89144 -3.48381 356.124 0.152519 0.0753313 -0.985425
-3.664 -3.50025 356.153 0.21358 0.103189 -0.971461
-3.4703 -3.51593 356.212 0.247675 0.0851483 -0.965094
-3.24268 -3.53242 356.24 0.177863 0.016384 -0.983919
-3.04069 -3.54944 356.291 0.140849 0.0417391 -0.989151
-2.79878 -3.56545 356.306 0.182596 0.0492216 -0.981955
-2.59815 -3.58179 356.357 0.275536 -0.0202827 -0.961077
-2.41866 -3.59854 356.428 0.193018 0.0233296 -0.980918
-2.18712 -3.61411 356.451 0.126125 0.0702261 -0.989526
-1.96345 -3.63089 356.482 0.154174 0.0642172 -0.985955
-1.73545 -3.64736 356.509 0.142626 0.0478997 -0.988617
-1.51639 -3.66303 356.543 0.123371 0.0770577 -0.989364
-1.30617 -3.67929 356.585 0.233195 0.154658 -0.960052
-1.12464 -3.69586 356.653 0.249227 0.181051 -0.951371
-0.899168 -3.71114 356.681 0.264036 0.130406 -0.955657
-0.710432 -3.72812 356.742 0.216337 0.0816897 -0.972895
-0.473587 -3.74437 356.759 0.0901806 0.0727278 -0.993266
-0.240487 -3.76025 356.78 0.148997 0.0510226 -0.98752
-0.0350213 -3.77638 356.826 0.242431 0.114643 -0.963371
0.160821 -3.79283 356.88 0.252298 0.170648 -0.952484
0.360283 -3.80913 356.93 0.260118 0.140544 -0.955294
0.535911 -3.82596 357.002 0.295041 0.159407 -0.942094
0.74589 -3.84171 357.043 0.293769 0.1486 -0.944255
0.935609 -3.85854 357.102 0.196303 0.123293 -0.972761
1.1563 -3.87421 357.133 0.242904 0.139681 -0.959941
1.34321 -3.8906 357.194 0.26946 0.0849443 -0.959258
1.56073 -3.90663 357.228 0.219802 0.0391592 -0.974758
1.75391 -3.92256 357.283 0.205732 0.0453492 -0.977557
1.97388 -3.93886 357.314 0.217103 0.0828555 -0.972626
2.16144 -3.9552 357.374 0.278622 0.071502 -0.957735
2.35517 -3.97146 357.428 0.188257 0.0578436 -0.980415
2.579 -3.98733 357.455 0.233844 0.0929306 -0.967823
2.76019 -4.00359 357.521 0.254319 0.0836741 -0.963494
2.98325 -4.02062 357.548 0.25201 0.110404 -0.961406
3.13732 -4.0363 357.638 0.375806 0.187911 -0.907447
3.32928 -4.05308 357.693 0.220329 0.149651 -0.963878
3.55513 -4.06869 357.718 0.138241 0.129757 -0.981862
3.76914 -4.08419 357.752 0.194237 0.15623 -0.968434
3.98528 -4.10012 357.785 0.188559 0.130908 -0.973298
4.18842 -4.11599 357.829 0.246874 0.132892 -0.959892
4.37185 -4.13175 357.894 0.359804 0.159106 -0.919362
4.53391 -4.14835 357.974 0.317793 0.137078 -0.938199
4.75657 -4.16452 358 0.222537 0.0610745 -0.973009
4.94514 -4.18162 358.057 0.243366 0.1039 -0.964354
5.15178 -4.19691 358.098 0.369472 0.100798 -0.923759
5.30304 -4.21362 358.19 0.42309 0.0272217 -0.905679
5.48318 -4.23036 358.255 0.234222 0.00490824 -0.972171
5.7019 -4.24605 358.284 0.171237 0.0210138 -0.985006
5.88624 -4.2603 358.344 0.249632 0.122127 -0.960608
6.08484 -4.27741 358.392 0.255113 0.139595 -0.956781
6.29601 -4.29385 358.427 0.301281 0.0910557 -0.949178
6.46858 -4.31001 358.498 0.277584 0.0488321 -0.959459
6.6714 -4.326 358.541 0.226958 0.065192 -0.97172
6.87928 -4.34152 358.579 0.310624 0.0154664 -0.950407
7.04612 -4.35811 358.656 0.281281 -0.0555315 -0.958017
7.23635 -4.37382 358.71 0.269241 0.0279868 -0.962666
7.42262 -4.39027 358.768 0.297364 0.110855 -0.948307
7.61401 -4.40609 358.821 0.338037 0.100254 -0.935778
7.78047 -4.42178 358.897 0.352415 0.0901267 -0.931494
7.97064 -4.43854 358.951 0.261363 0.0784771 -0.962045
8.17546 -4.45354 358.991 0.284763 0.0745176 -0.955697
8.3378 -4.47093 359.071 0.292027 0.123399 -0.948416
8.55099 -4.48671 359.102 0.192612 0.0839784 -0.977675
8.76205 -4.50224 359.136 0.181497 0.0833055 -0.979857
8.96366 -4.51805 359.178 0.228492 0.133716 -0.964319
9.15448 -4.53439 359.231 0.33595 0.128939 -0.933012
9.32237 -4.55014 359.305 0.367788 0.152473 -0.917324
9.50571 -4.56634 359.364 0.280277 0.131283 -0.950899
9.71046 -4.58293 359.403 0.219975 0.116001 -0.968584
9.91116 -4.59899 359.445 0.320603 0.16768 -0.932254
10.0737 -4.6147 359.524 0.426931 0.143129 -0.892885
10.2388 -4.63062 359.6 0.366152 0.0639371 -0.928356
10.4177 -4.64658 359.663 0.216188 0.0509485 -0.975022
10.6355 -4.66189 359.689 0.237158 0.0929185 -0.967017
10.7939 -4.67765 359.771 0.255612 0.136554 -0.957087
11.023 -4.69339 359.786 0.176508 0.0986436 -0.979344
11.2221 -4.70931 359.829 0.313026 0.129612 -0.940859
11.389 -4.72557 359.903 0.223086 0.153023 -0.962713
11.6198 -4.74077 359.915 0.275905 0.17034 -0.945971
11.75 -4.75756 360.024 0.337778 0.207532 -0.918061
11.9732 -4.77266 360.044 0.249181 0.166374 -0.954059
12.1577 -4.78876 360.1 0.40072 0.0856368 -0.912189
12.3123 -4.80479 360.185 0.341464 0.0333729 -0.939302
12.4835 -4.82008 360.254 0.284887 0.137448 -0.948656
12.6797 -4.83716 360.299 0.29059 0.176203 -0.940484
12.8748 -4.85263 360.345 0.401811 0.114699 -0.908511
13.0217 -4.86911 360.437 0.299559 0.0635671 -0.951958
13.2266 -4.88463 360.473 0.18701 0.113531 -0.975776
13.4298 -4.90022 360.51 0.262305 0.12633 -0.95668
13.6267 -4.91576 360.554 0.203192 0.0665476 -0.976875
13.8298 -4.93128 360.591 0.277746 0.0532108 -0.95918
13.9933 -4.94748 360.667 0.325374 0.0947095 -0.94083
14.1801 -4.96289 360.72 0.253935 0.1719 -0.951823
14.3776 -4.97868 360.762 0.362261 0.192587 -0.911963
14.5123 -4.9955 360.865 0.380509 0.21408 -0.899657
14.7142 -5.01044 360.903 0.259796 0.177753 -0.949163
14.9157 -5.02644 360.941 0.196917 0.0473915 -0.979274
15.1252 -5.04178 360.971 0.292906 -0.00167668 -0.95614
15.2808 -5.05828 361.054 0.483601 0.0309056 -0.874743
15.437 -5.07426 361.136 0.285955 0.0118337 -0.95817
15.6507 -5.08949 361.161 0.222809 0.00857885 -0.974824
15.8161 -5.10482 361.234 0.274515 0.0271423 -0.9612
16.0381 -5.12062 361.251 0.268743 -0.0289267 -0.962778
16.2028 -5.13744 361.324 0.263575 -0.0428996 -0.963685
16.3944 -5.15226 361.371 0.25999 0.0186201 -0.965432
16.5702 -5.16811 361.433 0.291521 0.041646 -0.955657
16.7602 -5.18368 361.481 0.425103 0.0285066 -0.904696
16.8876 -5.20042 361.591 0.471648 0.0489317 -0.880428
17.0702 -5.2161 361.646 0.303897 0.0463569 -0.951577
17.2546 -5.23224 361.699 0.330225 0.0134793 -0.943806
17.4223 -5.24772 361.768 0.271765 0.0293772 -0.961915
17.6256 -5.26242 361.803 0.274013 0.101062 -0.956401
17.7867 -5.27853 361.879 0.383975 0.129455 -0.914224
17.9624 -5.29487 361.94 0.306643 0.0762627 -0.948765
18.1529 -5.31058 361.986 0.346482 0.0655365 -0.935765
18.3105 -5.32655 362.066 0.322224 0.0627328 -0.944582
18.5089 -5.34178 362.104 0.296965 0.0444993 -0.953851
18.678 -5.35745 362.171 0.448209 0.0121605 -0.893846
18.8273 -5.37373 362.258 0.409254 0.00349329 -0.912414
18.9973 -5.38982 362.325 0.35529 0.0275543 -0.93435
19.1641 -5.40572 362.394 0.307817 0.0560039 -0.949796
19.3561 -5.42103 362.439 0.394592 0.0630701 -0.916689
19.5005 -5.43747 362.53 0.399118 0.0269854 -0.916503
19.6858 -5.45369 362.581 0.343577 0.00381825 -0.939117
19.8362 -5.46882 362.666 0.358633 0.0358744 -0.932789
20.0354 -5.48415 362.703 0.297568 0.0222638 -0.954441
20.2014 -5.50019 362.772 0.351888 0.0170812 -0.935886
20.3699 -5.51555 362.84 0.417884 0.0138822 -0.908394
20.5269 -5.5325 362.918 0.40721 -0.00646024 -0.913312
20.7067 -5.54725 362.974 0.334163 -0.0127791 -0.942429
20.8706 -5.56367 363.045 0.403037 0.0375656 -0.914412
21.0275 -5.58003 363.123 0.505875 0.053733 -0.860932
21.1759 -5.59622 363.21 0.467753 -0.00886261 -0.883815
21.3307 -5.61195 363.291 0.425758 0.0125907 -0.90475
21.4917 -5.62746 363.365 0.431965 -0.0189532 -0.901691
21.6441 -5.64321 363.447 0.40285 -0.0591441 -0.913353
21.8184 -5.65975 363.508 0.439076 -0.0253647 -0.898092
21.9628 -5.6759 363.598 0.383227 0.011677 -0.92358
22.1484 -5.6913 363.647 0.386016 0.0190755 -0.922295
22.2986 -5.7076 363.732 0.478385 -0.0363984 -0.877396
22.4539 -5.72279 363.811 0.469247 -0.0455717 -0.881891
22.5994 -5.73957 363.9 0.486329 0.00477371 -0.873763
22.753 -5.75553 363.981 0.506435 -0.0159491 -0.86213
22.8935 -5.77204 364.075 0.468268 -0.00217122 -0.883584
23.058 -5.78797 364.145 0.407677 0.0513536 -0.911681
23.2217 -5.80334 364.215 0.421452 0.0446972 -0.905748
23.3814 -5.81962 364.29 0.529115 0.0200424 -0.848313
23.5079 -5.83629 364.398 0.622953 0.0305301 -0.781663
23.6393 -5.85288 364.501 0.54518 0.0686392 -0.835504
23.7937 -5.86859 364.581 0.437269 0.061329 -0.897237
23.9574 -5.88493 364.651 0.412119 0.0281059 -0.910696
24.1133 -5.90034 364.729 0.506319 0.0532187 -0.860702
24.2467 -5.91675 364.829 0.576864 0.0769006 -0.813212
24.3921 -5.93305 364.918 0.542834 0.0563818 -0.837945
24.5382 -5.94978 365.006 0.551494 0.0474324 -0.832829
24.6799 -5.96532 365.098 0.59845 0.00876759 -0.801112
-9.88542 -2.90349 355.639 0.305837 0.284817 -0.908484
-9.68794 -2.91945 355.699 0.254541 0.301243 -0.918946
-9.45901 -2.93674 355.731 0.0734715 0.232458 -0.969827
-9.1738 -2.95169 355.714 -0.0277028 0.173538 -0.984437
-8.88763 -2.96869 355.696 -0.00896672 0.106214 -0.994303
-8.62321 -2.98424 355.696 -0.0106763 0.0676761 -0.99765
-8.33586 -3.00064 355.676 -0.00331074 0.0340226 -0.999416
-8.09001 -3.01704 355.692 0.0473153 0.028836 -0.998464
-7.84428 -3.03378 355.708 0.0107665 0.0603891 -0.998117
-7.5666 -3.04951 355.696 0.0523878 0.10619 -0.992965
-7.33938 -3.06581 355.728 0.0814569 0.101873 -0.991457
-7.0816 -3.08239 355.733 0.0387075 0.0822785 -0.995857
-6.83141 -3.09871 355.744 0.061951 0.0816372 -0.994735
-6.58973 -3.11487 355.763 0.119876 0.0742373 -0.990009
-6.37976 -3.13096 355.809 0.0920871 0.112688 -0.989354
-6.11278 -3.14754 355.805 0.0784884 0.12372 -0.989208
-5.88872 -3.16422 355.838 0.177862 0.104633 -0.978477
-5.67857 -3.18055 355.884 0.15565 0.109803 -0.981691
-5.44511 -3.19639 355.908 0.164291 0.104609 -0.980849
-5.24837 -3.2127 355.965 0.194949 0.116805 -0.973833
-5.01466 -3.22904 355.99 0.116549 0.116061 -0.98638
-4.77949 -3.24685 356.012 0.120173 0.123651 -0.985022
-4.55664 -3.26253 356.046 0.140659 0.13639 -0.980619
-4.31662 -3.27873 356.064 0.142589 0.107761 -0.983898
-4.09358 -3.29508 356.096 0.187171 0.068661 -0.979925
-3.88558 -3.31156 356.143 0.178194 0.10434 -0.978448
-3.66706 -3.32794 356.179 0.202385 0.127549 -0.970964
-3.4577 -3.34438 356.224 0.188333 0.088619 -0.978099
-3.23002 -3.36063 356.252 0.199041 0.078992 -0.976802
-3.03907 -3.37724 356.312 0.152739 0.0971766 -0.983477
-2.78623 -3.39293 356.318 0.145936 0.155334 -0.977023
-2.5854 -3.4097 356.369 0.31399 0.144053 -0.938434
-2.40595 -3.4267 356.439 0.227645 0.0425926 -0.972812
-2.17534 -3.44268 356.464 0.121154 0.0369573 -0.991945
-1.95075 -3.45876 356.494 0.139743 0.0415467 -0.989316
-1.73384 -3.4748 356.53 0.164509 0.0547871 -0.984853
-1.52626 -3.49159 356.575 0.186915 0.106023 -0.976638
-1.30858 -3.50778 356.611 0.252937 0.109203 -0.9613
-1.11627 -3.52422 356.669 0.204394 0.0830795 -0.975357
-0.877362 -3.54033 356.685 0.218156 0.058259 -0.974173
-0.705144 -3.55696 356.761 0.200602 0.0646626 -0.977536
-0.463996 -3.57219 356.774 0.0790519 0.0865154 -0.993109
-0.228047 -3.58865 356.792 0.205379 0.0956351 -0.973999
-0.0670349 -3.60552 356.878 0.291455 0.171003 -0.941176
0.142314 -3.62198 356.92 0.22923 0.206982 -0.951111
0.357062 -3.63832 356.957 0.277303 0.167605 -0.94605
0.548285 -3.65437 357.014 0.283297 0.0977368 -0.954039
0.74542 -3.67181 357.067 0.265801 0.066351 -0.961742
0.933841 -3.68683 357.127 0.209311 0.0978932 -0.972937
1.1644 -3.7031 357.149 0.200357 0.129802 -0.971086
1.36343 -3.71883 357.199 0.22926 0.0918291 -0.969024
1.57222 -3.73507 357.241 0.225208 0.0617483 -0.972352
1.76638 -3.7519 357.295 0.239367 0.0875229 -0.966976
1.96265 -3.76859 357.347 0.21414 0.132749 -0.96774
2.18284 -3.784 357.378 0.262589 0.102373 -0.959462
2.36685 -3.80062 357.441 0.218655 0.0581944 -0.974065
2.58164 -3.81666 357.476 0.229598 0.132334 -0.964247
2.77249 -3.83298 357.533 0.278907 0.13632 -0.950593
2.95079 -3.84843 357.601 0.321706 0.180523 -0.929471
3.13901 -3.86586 357.66 0.339166 0.178638 -0.92361
3.33586 -3.88125 357.711 0.199227 0.0870964 -0.976075
3.55143 -3.89761 357.744 0.157875 0.106041 -0.981749
3.75997 -3.91403 357.784 0.172836 0.130081 -0.976323
3.97345 -3.93001 357.819 0.192704 0.158517 -0.968368
4.17734 -3.9461 357.863 0.273712 0.213534 -0.937808
4.36411 -3.96243 357.922 0.339834 0.174692 -0.924119
4.5595 -3.97978 357.974 0.245071 0.0616413 -0.967543
4.76892 -3.99455 358.012 0.26016 0.0930139 -0.961075
4.92923 -4.0105 358.096 0.248267 0.132914 -0.95953
5.16413 -4.02633 358.11 0.314906 0.130857 -0.940059
5.3139 -4.04307 358.203 0.389628 0.114614 -0.913813
5.52417 -4.05943 358.24 0.241814 0.00776213 -0.970292
5.7037 -4.07551 358.305 0.25766 0.0182666 -0.966063
5.89834 -4.09186 358.356 0.264491 0.128816 -0.955746
6.0972 -4.10791 358.403 0.218175 0.143921 -0.965239
6.29907 -4.12315 358.448 0.267962 0.152669 -0.951256
6.48732 -4.14007 358.504 0.291346 0.109096 -0.950376
6.67928 -4.15608 358.557 0.194211 0.0553012 -0.9794
6.90043 -4.17209 358.583 0.252476 0.0603246 -0.965721
7.08468 -4.18777 358.643 0.356037 -0.00786084 -0.934439
7.24875 -4.20454 358.722 0.341832 0.0316643 -0.939227
7.42464 -4.22084 358.789 0.290402 0.106567 -0.950952
7.62492 -4.23763 358.834 0.331688 0.135619 -0.93359
7.79287 -4.25317 358.909 0.337678 0.109974 -0.934815
7.98932 -4.26983 358.957 0.258812 0.06655 -0.963632
8.17133 -4.28557 359.018 0.328502 0.109367 -0.93815
8.34861 -4.30158 359.084 0.253781 0.117208 -0.960134
8.57363 -4.31711 359.105 0.189972 0.0586129 -0.980038
8.74675 -4.33392 359.174 0.225848 0.120691 -0.966657
8.95827 -4.3491 359.207 0.230407 0.196239 -0.953102
9.15005 -4.36471 359.259 0.358034 0.163996 -0.919194
9.3056 -4.38158 359.344 0.346147 0.153375 -0.925558
9.51224 -4.39786 359.381 0.264347 0.108421 -0.958314
9.68525 -4.41272 359.451 0.26478 0.105945 -0.958471
9.87363 -4.42844 359.505 0.305289 0.222567 -0.925884
10.063 -4.44502 359.558 0.358156 0.214256 -0.908746
10.2511 -4.46154 359.612 0.34451 0.0811203 -0.935271
10.43 -4.47765 359.675 0.251799 0.0475437 -0.966611
10.6262 -4.4935 359.721 0.274098 0.0880094 -0.957666
10.8113 -4.50993 359.778 0.219802 0.115174 -0.968722
11.0351 -4.52492 359.798 0.207799 0.144904 -0.967379
11.1891 -4.54138 359.884 0.33307 0.222555 -0.916261
11.3885 -4.55714 359.927 0.239382 0.189862 -0.952181
11.5744 -4.5733 359.982 0.308878 0.20077 -0.92967
11.762 -4.58922 360.036 0.299784 0.157497 -0.940917
11.9606 -4.60488 360.079 0.189317 0.10011 -0.976799
12.1699 -4.62032 360.112 0.353824 0.136673 -0.925272
12.3244 -4.63679 360.197 0.432909 0.0743494 -0.898366
12.4955 -4.65286 360.266 0.316803 0.0906733 -0.944148
12.6821 -4.66853 360.32 0.242698 0.123873 -0.962161
12.88 -4.6846 360.363 0.350333 0.0949339 -0.931802
13.0428 -4.70063 360.44 0.336436 0.0431741 -0.940716
13.2376 -4.71644 360.486 0.195736 0.0451874 -0.979615
13.4398 -4.73183 360.524 0.210118 0.122795 -0.969934
13.6351 -4.74816 360.569 0.201524 0.136042 -0.96999
13.8436 -4.76401 360.601 0.319593 0.125827 -0.939163
13.9901 -4.77972 360.693 0.392871 0.12318 -0.911306
14.1678 -4.79632 360.755 0.271827 0.150445 -0.950514
14.3592 -4.81141 360.803 0.381267 0.176832 -0.907395
14.5173 -4.82782 360.884 0.344619 0.125576 -0.930306
14.7265 -4.8431 360.915 0.14762 0.0806086 -0.985754
14.9533 -4.85822 360.928 0.164639 0.0133474 -0.986264
15.1376 -4.87401 360.983 0.340452 0.045306 -0.93917
15.2911 -4.89029 361.067 0.451259 0.0878145 -0.888062
15.4618 -4.9058 361.135 0.278313 0.0269283 -0.960113
15.6631 -4.92176 361.173 0.246952 0.0710014 -0.966423
15.847 -4.93807 361.227 0.231976 0.0926007 -0.968304
16.0506 -4.95295 361.263 0.263368 0.0755764 -0.96173
16.2126 -4.96893 361.338 0.324088 0.0770378 -0.942885
16.4067 -4.98497 361.383 0.284555 0.0612682 -0.9567
16.5825 -5.0004 361.445 0.295238 0.0990858 -0.950272
16.7724 -5.01616 361.493 0.45144 0.142192 -0.880899
16.8996 -5.03302 361.602 0.457501 0.0954997 -0.884066
17.0922 -5.0486 361.648 0.276867 0.0173841 -0.960751
17.2716 -5.06395 361.706 0.33769 0.00176265 -0.941256
17.439 -5.08029 361.776 0.332897 0.0151934 -0.942841
17.6029 -5.09644 361.849 0.302546 0.0917717 -0.948706
17.7987 -5.11192 361.89 0.333266 0.117718 -0.935455
17.971 -5.12781 361.955 0.299365 0.0620565 -0.952119
18.1569 -5.14326 362.006 0.342159 0.062091 -0.937588
18.3203 -5.15877 362.08 0.301266 0.00653691 -0.953518
18.521 -5.17484 362.116 0.280994 0.00836113 -0.959673
18.6854 -5.19073 362.188 0.440703 0.0713381 -0.894814
18.8395 -5.20702 362.27 0.429823 0.0792043 -0.899433
19.0096 -5.22331 362.336 0.379808 0.0915558 -0.920524
19.1764 -5.23887 362.406 0.321351 0.0765092 -0.943864
19.3596 -5.25447 362.459 0.364436 0.0660599 -0.928882
19.5214 -5.27048 362.533 0.375219 0.0456572 -0.925811
19.7037 -5.28612 362.587 0.372106 -0.00180877 -0.928189
19.8593 -5.3025 362.667 0.340317 0.019995 -0.940098
20.0478 -5.31773 362.714 0.299656 0.0447195 -0.952999
20.2137 -5.33365 362.784 0.35887 0.0672879 -0.930959
20.3969 -5.35008 362.836 0.401254 0.034169 -0.915329
20.5449 -5.36528 362.924 0.394078 -0.00673176 -0.919053
20.7189 -5.3812 362.985 0.388448 0.0507661 -0.920071
20.8656 -5.39746 363.074 0.429025 0.103003 -0.897401
21.0398 -5.41318 363.135 0.450854 0.0732173 -0.88959
21.1883 -5.42939 363.222 0.482511 -0.000508324 -0.87589
21.3432 -5.44516 363.302 0.397238 -0.0184625 -0.91753
21.5279 -5.46098 363.352 0.392323 -0.0414211 -0.918894
21.6865 -5.47768 363.428 0.433957 -0.0801861 -0.897358
21.8307 -5.49325 363.519 0.464711 -0.0362094 -0.884721
21.9821 -5.50968 363.602 0.38746 -0.0215888 -0.921634
22.1608 -5.52424 363.658 0.34586 -0.0221153 -0.938025
22.3309 -5.54072 363.723 0.471216 -0.0220885 -0.881741
22.4662 -5.55716 363.822 0.516019 -0.0215849 -0.856305
22.615 -5.57367 363.908 0.469147 -0.0158869 -0.882977
22.7788 -5.58951 363.978 0.508892 -0.066192 -0.858282
22.9068 -5.60578 364.085 0.501446 -0.0736111 -0.862052
23.0635 -5.62158 364.163 0.397073 -0.0277244 -0.917368
23.2308 -5.63745 364.23 0.409247 0.0257175 -0.912061
23.3879 -5.65319 364.307 0.548257 0.0426992 -0.835219
23.5127 -5.66995 364.417 0.64612 0.0399393 -0.76219
23.6398 -5.68673 364.524 0.524218 -0.0162491 -0.851429
23.806 -5.70264 364.592 0.39528 -0.0739086 -0.915583
23.9714 -5.71828 364.66 0.436567 -0.0341161 -0.899025
24.1147 -5.73466 364.751 0.532024 0.0510887 -0.845187
24.2589 -5.75076 364.841 0.555342 0.0393758 -0.83069
24.3992 -5.76716 364.935 0.531122 -0.0185359 -0.847093
24.5425 -5.78329 365.026 0.521154 -0.000849096 -0.853462
24.6922 -5.79937 365.11 0.609146 0.0127694 -0.792956
24.8116 -5.81607 365.225 0.686571 -0.00602086 -0.727038
-9.9103 -2.72752 355.683 0.323838 0.31265 -0.892961
-9.67734 -2.74514 355.713 0.206429 0.195042 -0.958825
-9.47018 -2.76142 355.764 0.0265472 0.0788619 -0.996532
-9.1542 -2.77808 355.72 -0.0742968 0.0767177 -0.994281
-8.87472 -2.7942 355.708 -0.0353952 0.0714512 -0.996816
-8.5944 -2.81077 355.694 -0.0316761 0.0634565 -0.997482
-8.32285 -2.8263 355.688 -0.00117829 0.0630038 -0.998013
-8.06348 -2.84239 355.693 0.0686585 0.0474215 -0.996513
-7.83145 -2.85967 355.72 0.0406794 0.0197841 -0.998976
-7.57699 -2.87632 355.729 0.0477656 0.067662 -0.996564
-7.33198 -2.89247 355.745 0.0658632 0.102523 -0.992548
-7.07568 -2.90825 355.751 0.0399331 0.0938222 -0.994788
-6.8267 -2.92499 355.763 0.0625159 0.132382 -0.989225
-6.57719 -2.94151 355.775 0.152919 0.153878 -0.976185
-6.37669 -2.95826 355.829 0.100849 0.124712 -0.987054
-6.10534 -2.97439 355.821 0.068685 0.139333 -0.987861
-5.88623 -2.99072 355.859 0.184389 0.169848 -0.968066
-5.66733 -3.00749 355.897 0.154194 0.152773 -0.976158
-5.43203 -3.0239 355.92 0.174274 0.100359 -0.97957
-5.22086 -3.04104 355.964 0.1871 0.0314312 -0.981838
-5.001 -3.057 356.001 0.117581 0.0369944 -0.992374
-4.7668 -3.07334 356.024 0.126318 0.0577494 -0.990307
-4.54407 -3.09035 356.058 0.114871 0.0586283 -0.991649
-4.30444 -3.10606 356.076 0.113354 0.063262 -0.991539
-4.08096 -3.12233 356.108 0.215819 0.0793862 -0.973201
-3.89858 -3.13925 356.177 0.199137 0.148028 -0.968727
-3.65456 -3.15555 356.191 0.172142 0.134086 -0.975904
-3.4516 -3.1724 356.242 0.181754 0.0943723 -0.978805
-3.22743 -3.18837 356.273 0.212602 0.100742 -0.971932
-3.03213 -3.20498 356.329 0.198202 0.0778103 -0.977068
-2.823 -3.22146 356.374 0.140518 0.169597 -0.975444
-2.58416 -3.23764 356.391 0.229272 0.194724 -0.953686
-2.37693 -3.2541 356.437 0.215491 0.0602156 -0.974647
-2.16254 -3.27048 356.476 0.125795 0.0349786 -0.991439
-1.92619 -3.28664 356.495 0.151362 0.039149 -0.987703
-1.72126 -3.3031 356.542 0.207062 0.0672098 -0.976016
-1.51362 -3.31951 356.587 0.189833 0.0712274 -0.979229
-1.29595 -3.33581 356.622 0.224995 0.0346149 -0.973745
-1.10365 -3.35236 356.681 0.184157 0.0540541 -0.98141
-0.873973 -3.36831 356.705 0.221716 0.0507224 -0.973791
-0.69255 -3.38515 356.772 0.211163 0.0516958 -0.976083
-0.457307 -3.40133 356.791 0.089285 0.07073 -0.993491
-0.233463 -3.41787 356.82 0.270418 0.12193 -0.95499
-0.0677216 -3.43417 356.902 0.323309 0.172817 -0.930379
0.144826 -3.45022 356.941 0.196893 0.177669 -0.964192
0.352746 -3.46638 356.984 0.220912 0.146488 -0.96423
0.56254 -3.48302 357.025 0.255538 0.0745614 -0.96392
0.758098 -3.49944 357.079 0.287741 0.0423045 -0.956774
0.945079 -3.51593 357.14 0.232673 0.0524134 -0.971142
1.14839 -3.53225 357.187 0.170549 0.101891 -0.980067
1.37591 -3.54829 357.211 0.205507 0.0982932 -0.973707
1.57168 -3.56507 357.264 0.247949 0.0787178 -0.96557
1.77001 -3.58211 357.315 0.277375 0.108525 -0.954613
1.95732 -3.59705 357.376 0.192201 0.128457 -0.972912
2.19513 -3.61331 357.39 0.228005 0.183644 -0.956184
2.36756 -3.6299 357.464 0.287108 0.21125 -0.934314
2.56628 -3.64619 357.513 0.236351 0.189613 -0.952987
2.76912 -3.66243 357.559 0.317818 0.157114 -0.935044
2.94332 -3.6797 357.631 0.319436 0.162334 -0.9336
3.14724 -3.69508 357.676 0.25571 0.152026 -0.954725
3.34833 -3.71139 357.723 0.212823 0.0819396 -0.973649
3.55436 -3.72754 357.765 0.176606 0.0924781 -0.979928
3.77223 -3.74402 357.796 0.195838 0.126166 -0.972486
3.96607 -3.76029 357.849 0.237258 0.154339 -0.959108
4.15701 -3.77611 357.905 0.24171 0.197362 -0.950066
4.37472 -3.79204 357.936 0.242359 0.154555 -0.957797
4.57198 -3.80828 357.986 0.274344 0.103403 -0.956056
4.74151 -3.82525 358.061 0.296239 0.178544 -0.938277
4.95952 -3.84136 358.091 0.250427 0.167137 -0.953599
5.13644 -3.85745 358.159 0.306 0.15605 -0.939155
5.32445 -3.87342 358.217 0.290204 0.170897 -0.941581
5.53666 -3.88903 358.252 0.260674 0.16622 -0.95101
5.71597 -3.90574 358.317 0.36062 0.17522 -0.916107
5.87376 -3.92248 358.403 0.277293 0.162597 -0.946927
6.09063 -3.93825 358.433 0.227967 0.185198 -0.955894
6.27753 -3.95454 358.491 0.233985 0.171961 -0.956912
6.49968 -3.97022 358.516 0.242309 0.144804 -0.959332
6.68909 -3.98646 358.571 0.206252 0.131021 -0.969687
6.90435 -4.00209 358.603 0.213901 0.167379 -0.962409
7.09648 -4.01844 358.655 0.397317 0.226927 -0.889181
7.24036 -4.03519 358.753 0.40908 0.222051 -0.885069
7.43277 -4.0513 358.805 0.319199 0.196373 -0.927119
7.60014 -4.06692 358.881 0.312017 0.188663 -0.931156
7.80504 -4.08408 358.921 0.297966 0.143799 -0.943683
7.98479 -4.09927 358.984 0.299989 0.107392 -0.947878
8.17271 -4.11581 359.04 0.331058 0.0958046 -0.938734
8.34978 -4.13233 359.106 0.20253 0.107559 -0.973351
8.58593 -4.14777 359.116 0.246335 0.121829 -0.961497
8.73496 -4.1639 359.209 0.292189 0.156144 -0.943528
8.95239 -4.18014 359.236 0.205537 0.175323 -0.962817
9.14562 -4.19711 359.286 0.349167 0.206893 -0.913935
9.31741 -4.21301 359.356 0.305355 0.193408 -0.93239
9.52476 -4.22826 359.393 0.261236 0.092565 -0.960827
9.70833 -4.24515 359.453 0.366801 0.0727716 -0.927449
9.86024 -4.26122 359.54 0.295501 0.122085 -0.94751
10.0752 -4.27723 359.57 0.243629 0.0958106 -0.965125
10.264 -4.29262 359.623 0.307037 0.0465151 -0.95056
10.4425 -4.30827 359.687 0.286895 0.0445556 -0.956925
10.6363 -4.32473 359.735 0.292761 0.0510593 -0.954822
10.8046 -4.34058 359.808 0.242693 0.0865497 -0.966235
11.0062 -4.35713 359.849 0.273946 0.175728 -0.945554
11.186 -4.37322 359.91 0.303907 0.194867 -0.93256
11.3915 -4.38872 359.947 0.245912 0.122516 -0.961518
11.5774 -4.40443 360.003 0.269163 0.112897 -0.956455
11.7778 -4.4204 360.044 0.243927 0.0856936 -0.966
11.9671 -4.43622 360.096 0.222267 0.0649575 -0.97282
12.1597 -4.45222 360.145 0.308 0.162727 -0.937366
12.3367 -4.46831 360.209 0.441315 0.136629 -0.88689
12.4816 -4.48525 360.303 0.343188 0.11918 -0.931675
12.6876 -4.50055 360.338 0.225185 0.137786 -0.964524
12.8859 -4.51614 360.381 0.307935 0.13293 -0.942075
13.0584 -4.53248 360.448 0.330718 0.117276 -0.936414
13.2439 -4.54854 360.503 0.26354 0.0750179 -0.961727
13.4199 -4.56448 360.567 0.221414 0.132862 -0.966087
13.6363 -4.57958 360.592 0.195701 0.107796 -0.974721
13.8232 -4.59488 360.645 0.319774 0.102071 -0.94198
14.0023 -4.61184 360.705 0.410172 0.0686008 -0.909425
14.1615 -4.62756 360.785 0.291871 0.0527272 -0.955003
14.3697 -4.6435 360.817 0.332085 0.0814784 -0.939724
14.5228 -4.65987 360.902 0.291289 0.0636772 -0.954513
14.7388 -4.67532 360.926 0.098059 0.0759386 -0.992279
14.9657 -4.69027 360.94 0.205196 0.0500325 -0.977441
15.1215 -4.70674 361.022 0.386293 0.0828766 -0.918645
15.3034 -4.72262 361.079 0.384489 0.0896722 -0.918764
15.474 -4.73868 361.147 0.31488 0.042539 -0.948178
15.65 -4.75524 361.209 0.266181 0.107605 -0.957898
15.8414 -4.76995 361.257 0.222109 0.140719 -0.964814
16.0459 -4.78656 361.291 0.27166 0.148583 -0.950854
16.2248 -4.80172 361.35 0.310704 0.136639 -0.940634
16.4127 -4.81726 361.401 0.318324 0.0761115 -0.944921
16.5709 -4.83366 361.48 0.338983 0.0963673 -0.935844
16.7502 -4.84952 361.538 0.412819 0.18935 -0.890914
16.9123 -4.86582 361.614 0.375548 0.109727 -0.920285
17.1103 -4.88119 361.654 0.268008 -0.0055381 -0.963401
17.2839 -4.89712 361.717 0.351932 0.046747 -0.934857
17.4555 -4.91317 361.783 0.400472 0.0596657 -0.914364
17.6152 -4.92934 361.86 0.321958 0.0223846 -0.946489
17.8048 -4.94527 361.908 0.279905 0.0379855 -0.959276
17.9833 -4.96096 361.967 0.301053 0.0394266 -0.952792
18.1692 -4.97637 362.018 0.290016 0.0352093 -0.956374
18.363 -4.99283 362.061 0.304918 0.0613702 -0.950399
18.5252 -5.00841 362.135 0.351788 0.0850172 -0.932211
18.6893 -5.02468 362.207 0.447066 0.0803025 -0.890889
18.8402 -5.04079 362.293 0.436637 0.0687816 -0.897005
19.0045 -5.05562 362.365 0.36231 0.0758665 -0.928965
19.1874 -5.07145 362.418 0.316636 0.0947021 -0.943808
19.3667 -5.08783 362.475 0.349243 0.0859809 -0.933079
19.5338 -5.10363 362.544 0.335947 0.0621823 -0.939826
19.7213 -5.11902 362.593 0.390534 0.0366976 -0.919857
19.86 -5.13543 362.69 0.358469 0.0271298 -0.933147
20.0599 -5.15108 362.726 0.32333 0.0452006 -0.945206
20.2106 -5.16725 362.811 0.336115 0.0974964 -0.936761
20.4092 -5.1826 362.848 0.369576 0.0912511 -0.924709
20.5571 -5.19886 362.935 0.446601 0.0348456 -0.894055
20.7171 -5.21489 363.011 0.437102 0.0635502 -0.897164
20.8726 -5.231 363.09 0.403806 0.0711826 -0.912071
21.0521 -5.24623 363.146 0.390231 0.0471352 -0.91951
21.2127 -5.26229 363.221 0.458808 0.00486002 -0.888522
21.3692 -5.27918 363.299 0.375529 -0.035943 -0.926113
21.5402 -5.2945 363.363 0.371258 0.0405396 -0.927644
21.6989 -5.31057 363.439 0.487841 0.0780641 -0.869435
21.8432 -5.32612 363.53 0.473083 0.0130774 -0.880921
22.0154 -5.34258 363.592 0.382705 -0.0188293 -0.923679
22.1761 -5.35879 363.667 0.359992 -0.00996355 -0.932902
22.3432 -5.37418 363.734 0.48191 0.0552665 -0.874476
22.4785 -5.39091 363.833 0.52087 0.0478747 -0.852293
22.644 -5.40608 363.902 0.431547 -0.0135041 -0.90199
22.7995 -5.42277 363.981 0.505551 -0.0327182 -0.862176
22.9422 -5.43958 364.073 0.531239 -0.0494455 -0.845778
23.0889 -5.45574 364.161 0.440961 -0.063011 -0.895312
23.2431 -5.47166 364.241 0.433881 -0.00469651 -0.900958
23.3966 -5.48823 364.322 0.556694 0.0680626 -0.827925
23.525 -5.50414 364.428 0.591155 0.0674236 -0.803735
23.6882 -5.51959 364.499 0.458494 -0.0342158 -0.888038
23.8474 -5.53571 364.573 0.430755 -0.103 -0.896572
23.9836 -5.55186 364.671 0.517567 -0.0376605 -0.854814
24.1204 -5.56845 364.769 0.522886 0.0227427 -0.852099
24.2775 -5.58382 364.846 0.497787 -0.0474961 -0.865998
24.4279 -5.60064 364.929 0.536324 -0.0933584 -0.838833
24.5611 -5.61716 365.031 0.537679 -0.0396918 -0.842215
24.7045 -5.63395 365.121 0.600514 -0.0134769 -0.799501
24.8261 -5.65004 365.234 0.607508 -0.0678973 -0.791407
24.979 -5.66564 365.314 0.53336 -0.139056 -0.83438
-10.1064 -2.537 355.647 0.403793 0.530519 -0.745319
-9.95177 -2.55453 355.741 0.228831 0.34245 -0.911243
-9.66911 -2.5706 355.729 0.11421 0.225573 -0.967509
-9.43532 -2.5879 355.757 0.0228112 0.113851 -0.993236
-9.14829 -2.60362 355.738 -0.0738484 0.106983 -0.991514
-8.86191 -2.6197 355.72 -0.0374348 0.116605 -0.992473
-8.59102 -2.636 355.715 -0.0286892 0.0921004 -0.995336
-8.31156 -2.65289 355.702 -0.0057804 0.0853497 -0.996334
-8.05058 -2.66927 355.704 0.0486387 0.0710747 -0.996284
-7.79717 -2.68575 355.714 0.0762664 0.0336528 -0.996519
-7.56413 -2.70237 355.741 0.0706615 0.0279037 -0.99711
-7.3192 -2.71906 355.757 0.0559085 0.0538383 -0.996983
-7.07153 -2.73536 355.771 0.0662414 0.0717294 -0.995222
-6.84113 -2.75195 355.799 0.0766874 0.115383 -0.990356
-6.59576 -2.76841 355.814 0.130531 0.164141 -0.977762
-6.36806 -2.785 355.845 0.111776 0.129325 -0.985282
-6.12923 -2.80148 355.866 0.0892321 0.131092 -0.987346
-5.89879 -2.81801 355.893 0.170414 0.160611 -0.972195
-5.6831 -2.83511 355.934 0.114989 0.136544 -0.983938
-5.41976 -2.85088 355.932 0.124865 0.110687 -0.98598
-5.20792 -2.86753 355.976 0.186013 0.036002 -0.981888
-4.98822 -2.88409 356.013 0.133059 0.0286539 -0.990694
-4.75406 -2.89984 356.036 0.12769 0.0806341 -0.988531
-4.53003 -2.91703 356.069 0.117959 0.0548719 -0.991501
-4.29427 -2.93345 356.09 0.128389 0.0339808 -0.991142
-4.08273 -2.95039 356.133 0.273822 0.10384 -0.956158
-3.90762 -2.96688 356.209 0.187358 0.137017 -0.972689
-3.64664 -2.98233 356.207 0.140293 0.0995794 -0.98509
-3.45337 -2.99941 356.266 0.185897 0.0639588 -0.980486
-3.21485 -3.01632 356.285 0.192011 0.0673862 -0.979077
-3.01948 -3.03269 356.341 0.273341 0.0464337 -0.960796
-2.83141 -3.04939 356.405 0.153443 0.0750458 -0.985304
-2.58179 -3.06602 356.412 0.125263 0.137667 -0.982526
-2.3642 -3.08196 356.449 0.190943 0.104121 -0.976063
-2.14985 -3.09825 356.488 0.132907 0.067731 -0.988811
-1.91363 -3.11417 356.507 0.180928 0.113066 -0.976976
-1.72981 -3.13135 356.573 0.212934 0.134942 -0.967703
-1.49092 -3.14753 356.59 0.164194 0.0674021 -0.984123
-1.28317 -3.16388 356.634 0.236989 0.0236182 -0.971225
-1.09095 -3.18056 356.692 0.184717 0.0636384 -0.980729
-0.852044 -3.19703 356.708 0.223237 0.0732106 -0.972011
-0.679856 -3.21348 356.784 0.219543 0.0600302 -0.973754
-0.444726 -3.22963 356.803 0.131857 0.0588363 -0.989521
-0.242526 -3.24563 356.852 0.312728 0.0930548 -0.945274
-0.0797682 -3.26293 356.936 0.325809 0.135352 -0.935697
0.125252 -3.27931 356.982 0.173222 0.190803 -0.966224
0.364455 -3.29537 356.996 0.167571 0.156249 -0.973399
0.575161 -3.31111 357.037 0.233028 0.090186 -0.968279
0.77065 -3.32786 357.091 0.297109 0.134175 -0.94537
0.957597 -3.34513 357.152 0.274906 0.131626 -0.952419
1.16096 -3.36126 357.199 0.16652 0.0594097 -0.984247
1.38826 -3.37824 357.223 0.192005 0.0932261 -0.976956
1.57939 -3.39356 357.281 0.275926 0.126465 -0.952823
1.77221 -3.40988 357.336 0.289398 0.0713066 -0.954549
1.95955 -3.42658 357.397 0.235423 0.083846 -0.96827
2.15304 -3.44317 357.452 0.249429 0.154988 -0.95591
2.34675 -3.4594 357.506 0.26873 0.192253 -0.943834
2.56525 -3.47553 357.538 0.210986 0.177187 -0.961296
2.7719 -3.49178 357.58 0.322241 0.152636 -0.934271
2.93137 -3.50801 357.666 0.306758 0.102104 -0.946295
3.14562 -3.52564 357.7 0.195248 0.0997811 -0.975665
3.36068 -3.54135 357.735 0.221425 0.117347 -0.968091
3.55288 -3.55714 357.79 0.206099 0.126585 -0.970309
3.76293 -3.57263 357.828 0.219937 0.140224 -0.965383
3.95654 -3.58915 357.882 0.274555 0.185988 -0.943413
4.15341 -3.60589 357.932 0.206771 0.189588 -0.959845
4.37403 -3.62189 357.96 0.203562 0.163583 -0.965299
4.56698 -3.6376 358.015 0.342031 0.179241 -0.922436
4.73335 -3.65435 358.092 0.285966 0.172829 -0.942525
4.9431 -3.67026 358.13 0.243519 0.200637 -0.948917
5.13468 -3.68686 358.184 0.318805 0.179754 -0.930619
5.31919 -3.70352 358.245 0.284963 0.140785 -0.948143
5.49787 -3.71994 358.311 0.271327 0.240152 -0.932045
5.70245 -3.73605 358.353 0.348377 0.238812 -0.906423
5.88066 -3.75234 358.42 0.295872 0.142902 -0.944478
6.08237 -3.76885 358.464 0.214004 0.114385 -0.970112
6.28976 -3.78462 358.503 0.207925 0.0864831 -0.974314
6.48912 -3.80078 358.549 0.227374 0.0922213 -0.969431
6.6791 -3.81697 358.604 0.236544 0.132712 -0.962515
6.87954 -3.83307 358.649 0.263727 0.198242 -0.944006
7.04802 -3.8496 358.724 0.39259 0.266023 -0.880401
7.23064 -3.86584 358.785 0.385589 0.207824 -0.898961
7.4038 -3.88223 358.856 0.312035 0.169208 -0.934881
7.61147 -3.89851 358.893 0.272707 0.145771 -0.95099
7.79864 -3.91395 358.95 0.26989 0.201298 -0.941615
7.99701 -3.93046 358.996 0.295676 0.216192 -0.930503
8.18263 -3.94668 359.054 0.334635 0.0902164 -0.93802
8.35377 -3.96379 359.126 0.213484 0.070982 -0.974365
8.57558 -3.97863 359.15 0.276205 0.124661 -0.95298
8.73066 -3.99536 359.236 0.307663 0.137148 -0.941559
8.94893 -4.01112 359.263 0.229777 0.131754 -0.964284
9.11471 -4.02661 359.339 0.33545 0.129054 -0.933176
9.30445 -4.0431 359.392 0.219201 0.128177 -0.967224
9.53688 -4.05917 359.405 0.254508 0.161115 -0.953555
9.69089 -4.07505 359.492 0.408514 0.167465 -0.897258
9.87252 -4.0919 359.552 0.27009 0.106666 -0.956908
10.0854 -4.10762 359.583 0.206497 0.0569988 -0.976786
10.2764 -4.12306 359.635 0.30665 0.0937734 -0.947192
10.4547 -4.13996 359.698 0.295905 0.0951708 -0.950464
10.6475 -4.15588 359.748 0.322085 0.0863297 -0.942766
10.8178 -4.1727 359.819 0.320944 0.0923361 -0.942587
11.0034 -4.18795 359.875 0.287277 0.08706 -0.953883
11.1842 -4.2041 359.936 0.237125 0.0802126 -0.968162
11.4 -4.21997 359.963 0.235663 0.0623513 -0.969833
11.5746 -4.23625 360.029 0.244008 0.0878013 -0.96579
11.7901 -4.25187 360.056 0.227526 0.121534 -0.966158
11.9738 -4.26801 360.113 0.310439 0.107921 -0.944447
12.139 -4.28423 360.188 0.291579 0.159981 -0.943074
12.3487 -4.29974 360.221 0.421444 0.226776 -0.878042
12.4772 -4.31636 360.331 0.356193 0.149126 -0.922436
12.6986 -4.33218 360.351 0.221165 0.0852589 -0.971502
12.8628 -4.34851 360.427 0.295263 0.123177 -0.947442
13.0675 -4.36387 360.463 0.289627 0.0893759 -0.952958
13.2466 -4.38005 360.524 0.309612 0.0422502 -0.949924
13.4322 -4.39622 360.579 0.196278 0.0706201 -0.978002
13.6596 -4.4118 360.593 0.193271 0.0539275 -0.979662
13.8354 -4.42764 360.656 0.297046 0.0887837 -0.950727
14.0289 -4.44333 360.703 0.386329 0.0550013 -0.92072
14.1738 -4.45999 360.796 0.316497 0.0162558 -0.948454
14.3803 -4.47639 360.83 0.315543 0.104732 -0.943114
14.5351 -4.49136 360.914 0.292586 0.11904 -0.948801
14.7489 -4.50735 360.94 0.0854846 0.0775642 -0.993316
14.9813 -4.52417 360.948 0.247766 0.135265 -0.959331
15.1337 -4.53899 361.034 0.393504 0.124515 -0.910852
15.3157 -4.55521 361.091 0.33679 0.0480267 -0.940354
15.4863 -4.57143 361.158 0.370804 0.0819656 -0.925087
15.6536 -4.58694 361.229 0.291853 0.0808252 -0.953042
15.8535 -4.60275 361.268 0.224868 0.051005 -0.973053
16.0359 -4.61815 361.324 0.258328 0.0556511 -0.964453
16.2251 -4.6344 361.373 0.259064 0.0949014 -0.961187
16.4249 -4.65 361.412 0.337401 0.087055 -0.937327
16.5831 -4.66629 361.491 0.417668 0.00455465 -0.908588
16.7386 -4.68251 361.573 0.337803 0.0530001 -0.939724
16.9438 -4.69799 361.606 0.266882 0.0549609 -0.962161
17.1259 -4.7137 361.662 0.319604 -0.000609769 -0.947551
17.2826 -4.73007 361.742 0.367282 0.0564561 -0.928395
17.4637 -4.74575 361.799 0.362742 0.0756019 -0.928818
17.6375 -4.76185 361.862 0.332268 0.0306886 -0.942686
17.8172 -4.7777 361.919 0.281865 0.0238591 -0.959157
18.0038 -4.793 361.97 0.295823 0.0287281 -0.954811
18.1781 -4.80933 362.032 0.315745 0.0765403 -0.945752
18.3381 -4.82454 362.109 0.332196 0.159852 -0.929566
18.5277 -4.84091 362.156 0.355356 0.109388 -0.928308
18.7017 -4.85704 362.219 0.431903 0.00720884 -0.901891
18.8526 -4.87332 362.304 0.431905 -0.00813875 -0.901882
19.0254 -4.88942 362.368 0.37102 0.00464468 -0.928613
19.1811 -4.90571 362.448 0.309257 0.0605333 -0.94905
19.3789 -4.92088 362.487 0.327508 0.0759898 -0.941788
19.5394 -4.93697 362.562 0.318501 0.0543785 -0.946362
19.7335 -4.95248 362.604 0.381586 0.0688356 -0.921767
19.8839 -4.96942 362.689 0.371976 0.0395149 -0.927401
20.0701 -4.9841 362.739 0.369314 0.0438672 -0.928269
20.21 -5.00094 362.835 0.33227 0.0893922 -0.938939
20.4213 -5.01572 362.859 0.330265 0.142984 -0.932996
20.5665 -5.03231 362.949 0.474408 0.130849 -0.870526
20.7292 -5.0486 363.022 0.441829 0.077938 -0.893707
20.8848 -5.06463 363.102 0.38129 0.0548322 -0.922828
21.063 -5.08018 363.159 0.362927 0.0828081 -0.928131
21.2249 -5.09619 363.232 0.420526 0.100156 -0.901735
21.3919 -5.1121 363.3 0.446295 0.0231104 -0.894587
21.5258 -5.12861 363.401 0.413769 0.0641671 -0.908118
21.711 -5.14391 363.451 0.433416 0.118734 -0.893338
21.8613 -5.16075 363.535 0.439519 0.0604319 -0.896198
22.0277 -5.17628 363.604 0.393691 0.0639684 -0.917014
22.1882 -5.19228 363.678 0.431692 0.0657299 -0.899623
22.3374 -5.20869 363.764 0.479324 0.0624911 -0.87541
22.4952 -5.22422 363.84 0.460766 0.0545203 -0.885845
22.6563 -5.24049 363.914 0.426383 0.0261872 -0.904164
22.8127 -5.25604 363.992 0.499844 0.0345867 -0.865425
22.9545 -5.27225 364.085 0.515371 0.0184399 -0.856769
23.1099 -5.28845 364.163 0.495735 -0.00490545 -0.86846
23.2502 -5.30508 364.258 0.507842 0.0133811 -0.861346
23.3924 -5.32124 364.35 0.557224 0.0288248 -0.829862
23.5307 -5.33793 364.446 0.491975 0.0230724 -0.870303
23.7005 -5.35376 364.51 0.402386 0.0367168 -0.914734
23.8597 -5.36974 364.585 0.510122 0.0331091 -0.859465
23.9943 -5.38618 364.684 0.573164 0.0225496 -0.819131
24.1393 -5.40292 364.774 0.459871 0.00326637 -0.88798
24.3169 -5.41863 364.829 0.467158 -0.00970864 -0.88412
24.443 -5.43453 364.938 0.590195 -0.00292995 -0.807255
24.5746 -5.45104 365.041 0.569281 0.000178708 -0.822143
24.7199 -5.46732 365.129 0.558754 4.8233e-005 -0.829334
24.8688 -5.48347 365.214 0.542513 -0.0541398 -0.838301
25.011 -5.5001 365.306 0.539251 -0.0659291 -0.83956
25.1444 -5.51586 365.406 0.530275 -0.0643456 -0.84538
-10.1839 -2.36365 355.731 0.253426 0.42314 -0.869901
-9.96814 -2.38002 355.781 0.143094 0.311732 -0.939333
-9.68797 -2.39653 355.769 0.0341573 0.183471 -0.982431
-9.44482 -2.41282 355.789 0.0191457 0.16255 -0.986515
-9.15737 -2.42971 355.769 -0.0652165 0.146722 -0.987026
-8.8581 -2.44605 355.74 -0.0516862 0.125989 -0.990684
-8.57679 -2.46252 355.725 -0.0327582 0.0825215 -0.996051
-8.30164 -2.47888 355.716 -0.0108612 0.111468 -0.993709
-8.03786 -2.49576 355.716 0.0291866 0.130409 -0.991031
-7.78431 -2.51192 355.726 0.0769691 0.118829 -0.989927
-7.54641 -2.52838 355.748 0.0922572 0.0882428 -0.991818
-7.30297 -2.54527 355.766 0.0688696 0.0505659 -0.996343
