18.9181 52.7285 400.307 -0.350918 0.658246 -0.66601
19.1003 52.7139 400.19 -0.406748 0.647327 -0.644611
19.2811 52.6957 400.046 -0.421383 0.640423 -0.642101
19.463 52.6809 399.927 -0.471801 0.646338 -0.599708
24.7073 51.5123 390.867 -0.191855 -0.26463 -0.945073
24.8925 51.5122 390.832 0.122585 -0.326982 -0.937046
25.0775 51.5161 390.918 0.319555 -0.317097 -0.892936
25.2689 51.5328 390.972 0.605568 -0.224874 -0.76336
-15.5489 51.5731 390.223 -0.682113 -0.367742 -0.63205
-15.3568 51.5417 389.99 -0.698355 -0.40673 -0.588957
-15.167 51.5175 389.812 -0.605854 -0.404393 -0.685133
-14.9798 51.5013 389.694 -0.657173 -0.343571 -0.670882
-14.789 51.4723 389.479 -0.637824 -0.314109 -0.703219
-14.6015 51.4543 389.347 -0.576144 -0.375302 -0.72609
-14.4125 51.4305 389.186 -0.597809 -0.412385 -0.687432
-14.2247 51.41 389.021 -0.604663 -0.387304 -0.695973
-14.0385 51.3952 388.914 -0.63478 -0.331802 -0.697827
-13.85 51.3716 388.739 -0.612404 -0.325065 -0.720621
-13.6631 51.353 388.603 -0.637795 -0.33462 -0.693719
-13.4742 51.3266 388.407 -0.626139 -0.345218 -0.699125
-13.2871 51.3063 388.258 -0.566132 -0.389696 -0.726382
-13.1017 51.2923 388.156 -0.566925 -0.352241 -0.744663
-12.9154 51.2743 388.024 -0.530582 -0.305724 -0.790579
-12.7294 51.2567 387.895 -0.510074 -0.341861 -0.789275
-12.5434 51.2388 387.763 -0.536899 -0.403266 -0.741024
-12.3578 51.2218 387.639 -0.543438 -0.43545 -0.717676
-12.172 51.2038 387.522 -0.493674 -0.42314 -0.759762
-11.9882 51.1935 387.415 -0.37256 -0.400495 -0.83714
-11.8047 51.1843 387.395 -0.3552 -0.370172 -0.858374
-11.6209 51.1733 387.283 -0.390378 -0.388887 -0.834489
-11.4374 51.1636 387.217 -0.243151 -0.421833 -0.873461
-11.2544 51.1595 387.193 0.0488011 -0.39974 -0.915329
-11.074 51.1596 387.234 0.280251 -0.391377 -0.876518
-10.8956 51.1732 387.309 0.356567 -0.376228 -0.855168
-10.716 51.1814 387.365 0.403485 -0.363082 -0.839864
7.39677 51.0381 386.329 -0.616728 0.364964 -0.697458
7.57398 51.0138 386.143 -0.686386 0.259855 -0.679228
9.14516 50.706 383.789 -0.414495 0.0964992 -0.904921
9.32332 50.7014 383.737 -0.296336 0.0508561 -0.953729
9.50194 50.6957 383.674 -0.232928 0.0679843 -0.970115
9.6811 50.6901 383.66 -0.140988 0.0737204 -0.987263
9.86003 50.6874 383.631 -0.100091 0.0540021 -0.993512
10.0389 50.6846 383.612 -0.0263814 0.0218194 -0.999414
10.2182 50.6846 383.612 0.273857 -0.00184877 -0.961769
10.4004 50.6944 383.68 0.560309 -0.119785 -0.819576
10.5834 50.7109 383.801 0.770304 -0.255065 -0.584443
10.7729 50.7571 384.147 0.784331 -0.324401 -0.528761
10.9593 50.7878 384.366 0.504292 -0.269513 -0.820397
11.1402 50.7976 384.391 0.409552 -0.0166214 -0.912136
11.3237 50.8079 384.521 0.474116 -0.0498914 -0.879048
11.5065 50.8161 384.601 0.300298 -0.0526128 -0.952393
11.6891 50.8305 384.67 0.226297 0.0681609 -0.971671
11.869 50.8305 384.677 -0.120561 0.0939502 -0.98825
12.0491 50.8302 384.632 -0.411591 0.158896 -0.89741
12.2227 50.8033 384.555 -0.490406 0.313564 -0.813129
12.4022 50.8012 384.448 -0.48832 0.349183 -0.799759
12.5761 50.7776 384.296 -0.334603 0.330373 -0.88255
12.7562 50.7768 384.26 -0.0289322 0.262139 -0.964596
12.9371 50.7775 384.277 0.249852 0.14455 -0.957434
13.1182 50.7911 384.328 0.400213 0.000269005 -0.916422
13.3009 50.7967 384.393 0.774405 -0.12005 -0.621197
13.4907 50.8336 384.668 0.874094 -0.276012 -0.399722
14.9693 52.8756 400.097 0.306921 0.539418 -0.78411
15.1604 52.8884 400.19 0.348615 0.510702 -0.785908
15.3519 52.9027 400.293 0.307194 0.527945 -0.791774
15.5417 52.9106 400.348 0.290241 0.554401 -0.78
15.7333 52.9245 400.448 0.305836 0.552228 -0.77557
15.9232 52.9326 400.504 0.321583 0.537802 -0.779329
16.115 52.9467 400.606 0.311127 0.511415 -0.801034
16.3058 52.9568 400.677 0.211999 0.500138 -0.839594
16.4951 52.9623 400.713 0.225732 0.527775 -0.81884
16.6871 52.976 400.806 0.170709 0.595448 -0.785048
16.8748 52.9762 400.813 0.0982263 0.617673 -0.780277
17.0655 52.9854 400.872 0.113471 0.598021 -0.793407
17.2539 52.9875 400.883 0.0581903 0.613055 -0.787894
17.4421 52.989 400.888 0.0401878 0.626564 -0.778333
17.6307 52.9915 400.902 0.00682311 0.615037 -0.788469
17.8194 52.9915 400.902 -0.120321 0.607826 -0.784902
18.0035 52.9833 400.829 -0.176541 0.622232 -0.762667
18.1902 52.9804 400.801 -0.136181 0.638858 -0.757176
18.3762 52.9756 400.759 -0.156719 0.61068 -0.776214
18.5626 52.9717 400.724 -0.319396 0.569845 -0.757141
18.7464 52.9609 400.635 -0.340189 0.597358 -0.726247
18.9313 52.9533 400.572 -0.3653 0.614273 -0.699446
19.1117 52.9331 400.413 -0.427546 0.616905 -0.660781
19.2941 52.9191 400.301 -0.36676 0.66729 -0.648237
19.4772 52.9071 400.203 -0.477505 0.633453 -0.608872
19.6535 52.877 399.971 -0.55962 0.603381 -0.568116
24.7032 51.6891 390.796 -0.251762 -0.360256 -0.898238
24.8894 51.6891 390.782 0.113144 -0.322037 -0.939942
25.0758 51.692 390.832 0.361358 -0.308858 -0.879788
25.2674 51.7132 390.933 0.505893 -0.29992 -0.808777
-15.5434 51.7374 390.067 -0.714932 -0.34463 -0.60836
-15.3519 51.7078 389.849 -0.682391 -0.360944 -0.635659
-15.1642 51.69 389.72 -0.578386 -0.394809 -0.71386
-14.9761 51.6706 389.578 -0.621043 -0.411243 -0.667222
-14.7868 51.6468 389.404 -0.640393 -0.419113 -0.643616
-14.5979 51.6237 389.234 -0.599375 -0.422266 -0.68003
-14.41 51.6035 389.086 -0.583475 -0.401679 -0.70584
-14.224 51.5894 388.984 -0.577661 -0.359082 -0.733054
-14.0352 51.565 388.805 -0.619394 -0.366788 -0.694131
-13.8471 51.5427 388.641 -0.613335 -0.389239 -0.68725
-13.6598 51.5225 388.493 -0.633925 -0.376671 -0.675469
-13.4717 51.4986 388.317 -0.637523 -0.362504 -0.67982
-13.2851 51.4801 388.181 -0.54112 -0.368016 -0.756144
-13.0994 51.4646 388.069 -0.521954 -0.373294 -0.766952
-12.9133 51.4472 387.941 -0.545393 -0.366252 -0.753928
-12.7277 51.4312 387.825 -0.56285 -0.35365 -0.747082
-12.5412 51.4108 387.675 -0.568363 -0.38257 -0.728425
-12.3552 51.3922 387.539 -0.525928 -0.405234 -0.747787
-12.1697 51.3752 387.432 -0.467103 -0.324013 -0.822697
-11.9881 51.3739 387.366 -0.349401 -0.309021 -0.884548
-11.8027 51.3567 387.283 -0.37313 -0.401441 -0.836432
-11.6185 51.3441 387.191 -0.394868 -0.425163 -0.814442
-11.4353 51.3352 387.127 -0.201753 -0.442019 -0.874022
-11.2529 51.3336 387.123 0.0419279 -0.459071 -0.88741
-11.0725 51.3337 387.147 0.284965 -0.401541 -0.870379
-10.8943 51.3478 387.228 0.360974 -0.387074 -0.848453
-10.7157 51.3564 387.3 0.466518 -0.353189 -0.810937
-10.5703 51.5316 387.395 0.997852 0.0619418 -0.0213341
7.75127 51.1722 385.956 -0.765901 0.285675 -0.576009
7.9262 51.1352 385.674 -0.79728 0.263856 -0.542886
8.10209 51.106 385.451 -0.826449 0.269433 -0.494356
8.27493 51.0591 385.095 -0.857333 0.259493 -0.444571
9.14572 50.8892 383.8 -0.440326 0.197266 -0.875899
9.32398 50.877 383.752 -0.275161 0.117414 -0.954201
9.50254 50.8726 383.704 -0.228741 0.0612142 -0.971561
9.68115 50.8704 383.66 -0.162919 0.0160526 -0.986509
9.86004 50.8668 383.628 -0.134022 -0.0158282 -0.990852
10.0392 50.8624 383.612 -0.0507636 -0.0355361 -0.998078
10.2187 50.8625 383.612 0.140273 -0.070566 -0.987595
10.3998 50.8716 383.645 0.368356 -0.122549 -0.921572
10.5812 50.8804 383.709 0.736404 -0.192911 -0.648456
10.7688 50.9178 383.987 0.826048 -0.314138 -0.467934
10.9593 50.9683 384.364 0.625098 -0.44108 -0.643973
11.1408 50.9724 384.399 0.379551 -0.187591 -0.905953
11.3237 50.9874 384.508 0.470492 -0.0191359 -0.882197
11.5062 51.0011 384.579 0.400404 -0.0553035 -0.914668
11.6891 51.0117 384.677 0.248372 -0.0348136 -0.968039
11.8696 51.0135 384.687 -0.0388952 0.0434703 -0.998297
12.0519 51.0135 384.687 -0.225508 0.165101 -0.96015
12.2284 51.0072 384.632 -0.461746 0.302608 -0.833798
12.4061 50.9975 384.467 -0.53067 0.331588 -0.780025
12.5798 50.9721 384.387 -0.406542 0.334783 -0.850085
12.7578 50.9643 384.296 -0.142491 0.305198 -0.941568
12.9373 50.9627 384.296 0.112447 0.171845 -0.978685
13.1193 50.9627 384.313 0.231809 0.0226324 -0.972498
13.2996 50.9716 384.356 0.60791 -0.0958798 -0.788196
13.4865 50.9981 384.535 0.868825 -0.150849 -0.471579
14.9755 53.0851 400.23 0.289132 0.50904 -0.810729
15.1649 53.092 400.295 0.349161 0.542653 -0.763947
15.3573 53.1091 400.419 0.33991 0.52436 -0.78071
15.5483 53.1211 400.504 0.298726 0.530778 -0.793119
15.7391 53.1319 400.581 0.303032 0.507643 -0.806517
15.9301 53.1434 400.663 0.29782 0.482289 -0.823833
16.1204 53.1523 400.725 0.273918 0.518221 -0.810195
16.3103 53.1594 400.773 0.240274 0.554838 -0.796507
16.5022 53.1732 400.872 0.31166 0.535209 -0.785124
16.6951 53.1896 400.982 0.20513 0.551749 -0.80839
16.8829 53.1897 400.986 0.0688602 0.58158 -0.81057
17.0708 53.1899 400.987 0.133203 0.590104 -0.796263
17.2627 53.2018 401.061 0.0807446 0.615642 -0.783878
17.4503 53.2019 401.061 0.0168325 0.628664 -0.777494
17.6377 53.2019 401.061 -0.00307791 0.609983 -0.792408
17.8268 53.2022 401.047 -0.0889595 0.583743 -0.80705
18.0139 53.2022 401.047 -0.15397 0.609167 -0.777952
18.1993 53.195 400.987 -0.180312 0.650934 -0.737409
18.384 53.1861 400.914 -0.183294 0.645065 -0.741818
18.5696 53.1797 400.86 -0.258102 0.60202 -0.755616
18.7528 53.167 400.758 -0.308909 0.57919 -0.754397
18.937 53.1572 400.678 -0.358352 0.54737 -0.756287
19.1212 53.1474 400.598 -0.388499 0.572141 -0.722304
19.305 53.1368 400.513 -0.398369 0.607777 -0.686957
19.4842 53.114 400.334 -0.517417 0.553478 -0.652642
19.6657 53.0975 400.204 -0.596398 0.547532 -0.586956
24.7023 51.867 390.728 -0.209789 -0.322298 -0.923099
24.8878 51.867 390.728 0.103205 -0.278074 -0.954999
25.0739 51.8792 390.768 0.34423 -0.245554 -0.906206
25.2629 51.8873 390.85 0.432116 -0.327255 -0.840345
-15.7318 51.9389 390.187 -0.693473 -0.41534 -0.588717
-15.5416 51.9139 390.005 -0.700902 -0.404253 -0.587636
-15.3509 51.8867 389.805 -0.679583 -0.347704 -0.645963
-15.1605 51.8596 389.607 -0.605233 -0.386665 -0.695832
-14.9726 51.8408 389.466 -0.634223 -0.40464 -0.658808
-14.7817 51.8111 389.251 -0.643294 -0.357905 -0.676813
-14.5951 51.7957 389.141 -0.59301 -0.351635 -0.724356
-14.4073 51.7754 388.993 -0.559984 -0.339107 -0.755927
-14.2204 51.7582 388.868 -0.587611 -0.394984 -0.706187
-14.0319 51.7345 388.694 -0.62969 -0.382347 -0.67624
-13.845 51.7162 388.561 -0.62002 -0.336748 -0.708643
-13.6568 51.6928 388.389 -0.637258 -0.307643 -0.706582
-13.4705 51.6727 388.246 -0.638128 -0.224448 -0.736489
-13.2822 51.6502 388.077 -0.556633 -0.232033 -0.797697
-13.0975 51.6386 387.995 -0.527737 -0.331002 -0.78226
-12.9107 51.6179 387.843 -0.541912 -0.351491 -0.763404
-12.7256 51.6039 387.742 -0.588799 -0.332469 -0.736736
-12.5377 51.5776 387.548 -0.584303 -0.324886 -0.743666
-12.3538 51.5674 387.476 -0.457737 -0.285181 -0.84211
-12.1681 51.5493 387.409 -0.444441 -0.245284 -0.861573
-11.9846 51.5403 387.283 -0.441903 -0.316756 -0.839278
-11.8005 51.5279 387.191 -0.402838 -0.39023 -0.827915
-11.6151 51.5095 387.127 -0.384647 -0.404798 -0.829569
-11.4329 51.5052 387.027 -0.209648 -0.443128 -0.871599
-11.2509 51.5052 387.027 0.0900242 -0.470704 -0.877686
-11.0718 51.5112 387.079 0.28735 -0.416558 -0.862502
-10.8924 51.5198 387.147 0.375249 -0.404145 -0.834179
-10.7134 51.5307 387.229 0.55636 -0.343936 -0.75642
-10.5703 51.671 387.329 0.964718 -0.262991 -0.0124161
7.7541 51.3722 386.085 -0.734937 0.379774 -0.561818
7.93023 51.3423 385.858 -0.746421 0.37888 -0.547088
8.10416 51.2999 385.537 -0.822487 0.265859 -0.502827
8.27774 51.2572 385.213 -0.886425 0.184577 -0.424478
8.97116 51.0984 384.008 -0.657136 0.255735 -0.709064
9.14731 51.0782 383.854 -0.502245 0.234582 -0.832299
9.32487 51.0664 383.762 -0.329689 0.101622 -0.938604
9.50322 51.0608 383.694 -0.2726 0.0415321 -0.961231
9.68181 51.0566 383.651 -0.194145 -0.00311615 -0.980968
9.86004 51.0502 383.628 -0.153324 -0.0259688 -0.987835
10.039 51.0486 383.589 -0.0872035 -0.0456702 -0.995143
10.2186 51.0486 383.583 0.0819805 -0.0958729 -0.992012
10.3992 51.0487 383.613 0.230666 -0.14316 -0.962444
10.5801 51.0551 383.655 0.60686 -0.162999 -0.777915
10.7646 51.0784 383.826 0.839632 -0.24305 -0.485741
10.9557 51.1312 384.22 0.733026 -0.461786 -0.499427
11.1402 51.1553 384.39 0.48058 -0.440252 -0.758433
11.3241 51.1704 384.507 0.445765 -0.0556118 -0.893421
11.5062 51.1795 384.572 0.418145 -0.0275343 -0.907963
11.6891 51.1895 384.673 0.315077 -0.0381302 -0.9483
11.8706 51.1982 384.705 0.0931807 0.0481765 -0.994483
12.0526 51.2048 384.732 -0.044115 0.151901 -0.987411
12.2323 51.2047 384.729 -0.428339 0.236644 -0.872081
12.4079 51.1855 384.598 -0.545233 0.333915 -0.76891
12.5831 51.1656 384.445 -0.444032 0.354562 -0.822874
12.7613 51.1585 384.359 -0.274282 0.316144 -0.908197
12.9389 51.1508 384.312 -0.0365141 0.205951 -0.977881
13.1193 51.1501 384.312 0.0986713 0.0349896 -0.994505
13.2996 51.1509 384.322 0.493693 -0.0420932 -0.868617
13.486 51.1763 384.505 0.798018 -0.114166 -0.59172
13.6741 51.2068 384.729 0.844909 -0.305401 -0.439157
15.1726 53.3067 400.483 0.32409 0.53494 -0.780259
15.3637 53.319 400.571 0.338175 0.520741 -0.783879
15.5541 53.3286 400.637 0.276984 0.496556 -0.822625
15.7439 53.3361 400.689 0.266301 0.517107 -0.813439
15.9343 53.3453 400.753 0.326087 0.523968 -0.786845
16.1279 53.365 400.896 0.313457 0.528728 -0.788791
16.3192 53.3767 400.979 0.22817 0.564571 -0.79322
16.5074 53.378 400.992 0.304669 0.548588 -0.778606
16.7011 53.3955 401.104 0.238123 0.515293 -0.823269
16.8886 53.3969 401.12 0.0985475 0.523029 -0.846599
17.0805 53.4083 401.195 0.173662 0.565928 -0.805957
17.2701 53.4136 401.23 0.0997236 0.603121 -0.791391
17.459 53.4137 401.23 -0.0183511 0.613132 -0.789767
17.6456 53.4127 401.211 -0.0471031 0.624467 -0.77963
17.8332 53.4115 401.197 -0.0354831 0.632322 -0.773892
18.021 53.4115 401.191 -0.0670051 0.613932 -0.78651
18.2092 53.4111 401.188 -0.205561 0.593587 -0.778074
18.3936 53.4019 401.108 -0.24975 0.621361 -0.742654
18.5786 53.3935 401.039 -0.27498 0.621859 -0.733265
18.7628 53.3832 400.955 -0.339984 0.583447 -0.737563
18.9457 53.3693 400.845 -0.296373 0.59066 -0.750522
19.1312 53.3632 400.793 -0.322869 0.580292 -0.747674
19.3145 53.3509 400.661 -0.455635 0.538857 -0.708541
19.495 53.331 400.539 -0.477613 0.561727 -0.675536
19.6759 53.3131 400.396 -0.5352 0.564336 -0.628558
19.8528 53.2842 400.204 -0.58638 0.563072 -0.58233
20.0327 53.2641 400.009 -0.587273 0.591362 -0.552631
20.2078 53.2317 399.775 -0.599489 0.601472 -0.528058
24.8867 52.0524 390.698 0.120896 -0.27034 -0.955144
25.0724 52.0556 390.717 0.247012 -0.215389 -0.944771
25.2584 52.0613 390.764 0.417174 -0.238194 -0.877057
-15.7273 52.1063 390.057 -0.692995 -0.40182 -0.598581
-15.5353 52.075 389.827 -0.651742 -0.443489 -0.615264
-15.3478 52.0582 389.706 -0.676207 -0.382825 -0.629436
-15.1561 52.0256 389.471 -0.637082 -0.329726 -0.696712
-14.9705 52.0155 389.396 -0.620091 -0.319934 -0.716331
-14.7809 51.9901 389.211 -0.642512 -0.251769 -0.723734
-14.5936 51.9723 389.082 -0.588926 -0.256307 -0.766468
-14.4052 51.9499 388.919 -0.612546 -0.304524 -0.72942
-14.2171 51.9279 388.758 -0.597514 -0.357908 -0.717551
-14.0303 51.9105 388.633 -0.593226 -0.397805 -0.699882
-13.8426 51.8889 388.476 -0.599598 -0.365798 -0.71181
-13.656 51.8713 388.348 -0.582501 -0.313794 -0.749817
-13.4697 51.857 388.241 -0.628661 -0.261192 -0.732506
-13.2817 51.83 388.047 -0.614157 -0.26917 -0.741862
-13.0951 51.8103 387.904 -0.548397 -0.316111 -0.774167
-12.9092 51.7935 387.782 -0.536429 -0.361884 -0.76242
-12.7237 51.7774 387.666 -0.576556 -0.370214 -0.728371
-12.5375 51.7582 387.526 -0.540256 -0.299538 -0.786384
-12.3535 51.7473 387.448 -0.423035 -0.269861 -0.864995
-12.1679 51.7297 387.32 -0.487005 -0.355774 -0.797653
-11.9838 51.7175 387.213 -0.488069 -0.364724 -0.792947
-11.7995 51.7046 387.107 -0.414267 -0.375273 -0.829188
-11.614 51.6857 387.027 -0.393689 -0.414049 -0.820715
-11.4309 51.6772 386.942 -0.232183 -0.426532 -0.874163
-11.2494 51.6772 386.942 0.13908 -0.417114 -0.898149
-11.0699 51.6835 386.996 0.287826 -0.412591 -0.864248
-10.8901 51.69 387.048 0.402433 -0.414347 -0.816311
7.7578 51.578 386.245 -0.769443 0.270519 -0.578598
7.93189 51.5342 385.926 -0.838081 0.181977 -0.5143
8.10572 51.4908 385.598 -0.870785 0.111574 -0.478836
8.27917 51.4469 385.267 -0.899239 0.0891426 -0.428279
8.97376 51.2934 384.107 -0.679248 0.279739 -0.678504
9.14785 51.2618 383.854 -0.617875 0.137442 -0.77417
9.32585 51.2526 383.777 -0.391397 0.0359642 -0.919519
9.50348 51.2395 383.71 -0.315617 0.0195695 -0.948685
9.68182 51.2346 383.651 -0.216947 -0.00254977 -0.97618
9.86054 51.2339 383.618 -0.17467 -0.0664834 -0.98238
10.0393 51.2236 383.589 -0.139599 -0.0972883 -0.985417
10.2188 51.2236 383.565 0.0282803 -0.0697951 -0.99716
10.3978 51.2236 383.586 0.174211 -0.111486 -0.978377
10.5795 51.232 383.619 0.435648 -0.199131 -0.877814
10.7621 51.2463 383.722 0.78372 -0.203451 -0.586848
10.95 51.2851 384.009 0.821235 -0.318036 -0.473737
11.14 51.3317 384.355 0.692996 -0.397336 -0.601565
11.3241 51.3524 384.506 0.467121 -0.209515 -0.859012
11.5062 51.3599 384.559 0.411608 -0.0728993 -0.908441
11.6898 51.3757 384.668 0.384825 -0.0231565 -0.922699
11.8719 51.384 384.732 0.195637 0.0614747 -0.978748
12.0549 51.3848 384.757 0.0713913 0.181522 -0.980792
12.2325 51.3848 384.761 -0.291238 0.225129 -0.929784
12.4104 51.376 384.66 -0.567195 0.238956 -0.788156
12.5852 51.3544 384.518 -0.512497 0.300162 -0.804518
12.7632 51.3462 384.429 -0.384757 0.324767 -0.863996
12.9394 51.3317 384.322 -0.209515 0.249973 -0.945313
13.1193 51.3316 384.313 0.013657 0.0942695 -0.995453
13.2998 51.3332 384.322 0.388276 0.00663217 -0.921519
13.4856 51.3552 384.429 0.656641 -0.152024 -0.738723
13.6685 51.366 384.556 0.790504 -0.299616 -0.534166
13.8612 51.4128 384.902 0.847853 -0.349427 -0.398805
15.3679 53.5215 400.665 0.303917 0.474953 -0.825866
15.5596 53.5354 400.765 0.311746 0.457946 -0.832526
15.7511 53.5484 400.856 0.299633 0.488214 -0.819675
15.9429 53.562 400.954 0.325196 0.535553 -0.779378
16.1328 53.5694 401.004 0.34193 0.524868 -0.779485
16.3248 53.583 401.1 0.240736 0.497171 -0.833587
16.5148 53.59 401.148 0.246113 0.535597 -0.807815
16.7064 53.602 401.232 0.218089 0.558449 -0.800358
16.8953 53.6051 401.251 0.169494 0.566488 -0.806451
17.0864 53.615 401.319 0.212818 0.597463 -0.773141
17.2772 53.6237 401.378 0.108916 0.593667 -0.797306
17.4664 53.6275 401.401 0.00259494 0.582268 -0.812993
17.6547 53.6275 401.401 -0.0337618 0.598913 -0.800102
17.8407 53.6282 401.401 -0.0707288 0.605645 -0.792586
18.0312 53.6221 401.35 -0.0902358 0.59188 -0.800959
18.2158 53.6196 401.32 -0.149336 0.570488 -0.807615
18.4024 53.6156 401.284 -0.257417 0.569456 -0.780677
18.5868 53.6053 401.201 -0.3376 0.568819 -0.749981
18.7689 53.5887 401.071 -0.347314 0.566341 -0.747416
18.9546 53.5824 401.018 -0.304847 0.591163 -0.746723
19.1371 53.5675 400.9 -0.345116 0.565755 -0.748877
19.3218 53.559 400.83 -0.411778 0.544863 -0.730454
19.5016 53.5372 400.695 -0.453531 0.54015 -0.708906
19.6861 53.5285 400.577 -0.528656 0.519786 -0.671078
19.8645 53.5035 400.398 -0.560192 0.544631 -0.624149
20.0447 53.4837 400.242 -0.58499 0.561715 -0.585033
20.2207 53.4535 400.018 -0.596595 0.593725 -0.539967
24.8803 52.2232 390.64 0.168656 -0.328465 -0.929336
25.071 52.2359 390.692 0.204772 -0.314054 -0.927059
25.2563 52.2403 390.729 0.388099 -0.236853 -0.890662
-15.9156 52.3071 390.17 -0.665831 -0.341972 -0.663117
-15.7228 52.2739 389.928 -0.716125 -0.349206 -0.604335
-15.5334 52.251 389.762 -0.632321 -0.384696 -0.672442
-15.345 52.2311 389.618 -0.631018 -0.397223 -0.666356
-15.1557 52.2087 389.456 -0.617722 -0.382695 -0.686997
-14.9674 52.1869 389.298 -0.572162 -0.364937 -0.734474
-14.78 52.1689 389.168 -0.618954 -0.374832 -0.690215
-14.5906 52.1434 388.983 -0.602418 -0.402556 -0.689232
-14.4034 52.1253 388.852 -0.629713 -0.383349 -0.675652
-14.214 52.0983 388.655 -0.622825 -0.363889 -0.692585
-14.0265 52.0779 388.508 -0.574143 -0.38302 -0.72364
-13.84 52.0609 388.385 -0.560401 -0.354081 -0.748717
-13.6539 52.0446 388.268 -0.550595 -0.341433 -0.761754
-13.4665 52.023 388.111 -0.615055 -0.370388 -0.696074
-13.2791 52.0011 387.952 -0.61492 -0.378895 -0.691601
-13.0932 51.9843 387.831 -0.572261 -0.36336 -0.735178
-12.9063 51.9627 387.674 -0.548799 -0.386224 -0.741384
-12.7216 51.9499 387.554 -0.509593 -0.409602 -0.756665
-12.5362 51.9338 387.465 -0.495593 -0.363238 -0.788952
-12.3505 51.9159 387.336 -0.494802 -0.380955 -0.781053
-12.1652 51.8989 387.233 -0.48604 -0.419259 -0.766803
-11.9805 51.8842 387.136 -0.473665 -0.420785 -0.773681
-11.7972 51.8751 387.021 -0.440555 -0.413911 -0.796611
-11.6127 51.8606 386.941 -0.3823 -0.408445 -0.828866
-11.4288 51.8496 386.872 -0.209308 -0.438836 -0.873849
-11.2479 51.8496 386.863 0.128266 -0.448364 -0.8846
-11.0682 51.8562 386.916 0.267428 -0.400185 -0.876547
-10.8883 51.8622 386.965 0.342617 -0.345609 -0.873595
8.97446 51.4777 384.124 -0.773677 0.176602 -0.60847
9.14794 51.4415 383.867 -0.683805 0.0960195 -0.72332
9.32586 51.432 383.777 -0.406401 0.0263968 -0.913314
9.50354 51.4234 383.694 -0.337177 -0.03867 -0.940647
9.68136 51.4115 383.649 -0.276594 -0.084125 -0.957297
9.86054 51.4093 383.582 -0.203943 -0.105173 -0.973317
10.039 51.4052 383.565 -0.110002 -0.0969781 -0.989189
10.2188 51.4046 383.557 -0.0148967 -0.107768 -0.994064
10.3974 51.4047 383.557 0.0666077 -0.179533 -0.981494
10.5789 51.4094 383.549 0.340207 -0.232501 -0.911154
10.7614 51.423 383.684 0.702057 -0.226843 -0.675025
10.9472 51.4518 383.896 0.836056 -0.255771 -0.485379
11.1376 51.5013 384.261 0.786703 -0.351653 -0.507384
11.3236 51.5287 384.462 0.548455 -0.355224 -0.756976
11.5062 51.5368 384.559 0.453321 -0.139273 -0.880399
11.6901 51.5573 384.669 0.454985 -0.0388615 -0.88965
11.8731 51.5697 384.757 0.310309 0.0324623 -0.950081
12.0558 51.5806 384.819 0.126992 0.117102 -0.984967
12.236 51.5807 384.821 -0.245111 0.177573 -0.953094
12.4145 51.5735 384.73 -0.51777 0.266084 -0.813089
12.5888 51.5498 384.593 -0.487959 0.377979 -0.786783
12.7666 51.5402 384.494 -0.449887 0.369835 -0.812911
12.9419 51.5216 384.374 -0.345424 0.30545 -0.887346
13.1195 51.5158 384.319 -0.072615 0.175651 -0.981771
13.2998 51.5158 384.32 0.206518 0.0307592 -0.977959
13.4818 51.521 384.357 0.473473 -0.128407 -0.871398
13.6645 51.5314 384.481 0.736877 -0.235677 -0.633616
13.8549 51.57 384.715 0.832027 -0.324035 -0.450258
15.5637 53.7378 400.857 0.337575 0.488817 -0.804426
15.7561 53.7536 400.97 0.377125 0.459555 -0.804106
15.9477 53.7662 401.06 0.33201 0.480383 -0.811789
16.1399 53.781 401.164 0.287495 0.507031 -0.812568
16.3299 53.7878 401.21 0.29902 0.481405 -0.823915
16.5226 53.8036 401.323 0.282021 0.500485 -0.818523
16.7127 53.8102 401.367 0.223438 0.544481 -0.808465
16.9045 53.8226 401.454 0.232581 0.555844 -0.798087
17.0959 53.8332 401.528 0.192339 0.569225 -0.799367
17.2844 53.8344 401.531 0.0817944 0.578767 -0.811381
17.4731 53.8344 401.531 0.0307231 0.577642 -0.815712
17.6602 53.8365 401.541 -0.0218319 0.561642 -0.827093
17.8499 53.8332 401.511 -0.098949 0.547502 -0.830934
18.0362 53.8328 401.497 -0.12553 0.559231 -0.819453
18.2233 53.83 401.47 -0.133108 0.574575 -0.807555
18.4098 53.8254 401.43 -0.237928 0.568745 -0.78735
18.5941 53.8145 401.343 -0.339338 0.566284 -0.751114
18.7792 53.8063 401.276 -0.310357 0.598059 -0.738921
18.963 53.7946 401.182 -0.333272 0.586483 -0.738219
19.1463 53.7814 401.078 -0.353822 0.568929 -0.742381
19.3305 53.7712 400.984 -0.400799 0.555393 -0.728628
19.5109 53.7506 400.836 -0.456845 0.524472 -0.718485
19.6936 53.7368 400.727 -0.473273 0.539443 -0.696429
19.8743 53.7177 400.586 -0.517864 0.557552 -0.648809
20.0563 53.7025 400.419 -0.538257 0.555375 -0.633907
24.8792 52.4009 390.579 0.181348 -0.330525 -0.926211
25.0686 52.4142 390.594 0.257416 -0.351526 -0.900092
25.2518 52.4144 390.692 0.392036 -0.287866 -0.873751
25.4458 52.4426 390.776 0.74971 -0.131691 -0.648531
-15.9117 52.4768 390.057 -0.65836 -0.453514 -0.600739
-15.7203 52.4479 389.847 -0.699932 -0.407351 -0.586652
-15.529 52.4183 389.632 -0.638714 -0.391546 -0.662372
-15.3404 52.3974 389.481 -0.607679 -0.439399 -0.661555
-15.1508 52.3727 389.302 -0.574045 -0.472605 -0.668668
-14.9648 52.36 389.213 -0.583079 -0.412106 -0.700134
-14.7747 52.3322 389.011 -0.636123 -0.35885 -0.683062
-14.5871 52.3129 388.872 -0.597096 -0.400023 -0.695312
-14.3996 52.2931 388.729 -0.618133 -0.365766 -0.695792
-14.2118 52.272 388.577 -0.631765 -0.314817 -0.708352
-14.0248 52.2533 388.442 -0.554756 -0.34806 -0.755712
-13.8388 52.2379 388.332 -0.544364 -0.382054 -0.746795
-13.6512 52.2161 388.174 -0.579053 -0.397335 -0.711914
-13.4647 52.1976 388.042 -0.625713 -0.342886 -0.700651
-13.2767 52.1731 387.863 -0.606812 -0.295953 -0.737693
-13.0908 52.1559 387.74 -0.58919 -0.323844 -0.740257
-12.9029 52.1304 387.582 -0.560335 -0.364284 -0.743855
-12.7192 52.1212 387.489 -0.467456 -0.39959 -0.788551
-12.5341 52.106 387.379 -0.50787 -0.375569 -0.775252
-12.3485 52.0884 387.253 -0.522104 -0.395862 -0.755447
-12.1633 52.072 387.135 -0.479041 -0.447984 -0.754871
-11.9784 52.0561 387.021 -0.459168 -0.433191 -0.775571
-11.7952 52.0475 386.938 -0.42639 -0.404881 -0.808865
-11.6112 52.035 386.851 -0.385861 -0.412894 -0.825003
-11.4269 52.0206 386.768 -0.205995 -0.440118 -0.873992
-11.2445 52.0206 386.768 0.17173 -0.433946 -0.884421
-11.067 52.0314 386.856 0.308323 -0.439878 -0.843471
-10.8866 52.035 386.916 0.206237 -0.449331 -0.869234
9.1488 51.627 383.875 -0.719037 0.106295 -0.686794
9.32586 51.612 383.777 -0.459552 -0.00398936 -0.888142
9.50354 51.6013 383.68 -0.378106 -0.0626476 -0.92364
9.68136 51.5885 383.618 -0.292838 -0.0918565 -0.95174
9.86054 51.5862 383.575 -0.193359 -0.0741376 -0.978323
10.0387 51.5862 383.562 -0.118817 -0.0794113 -0.989735
10.2188 51.5819 383.514 -0.0878028 -0.126244 -0.988106
10.3971 51.5821 383.506 -0.00609264 -0.163115 -0.986588
10.5775 51.5821 383.516 0.273928 -0.178636 -0.945015
10.758 51.5867 383.586 0.632199 -0.245869 -0.734761
10.9441 51.6174 383.774 0.806268 -0.30292 -0.508105
11.1337 51.6632 384.111 0.788014 -0.441052 -0.429543
11.3228 51.7057 384.423 0.635733 -0.498743 -0.589151
11.5065 51.7295 384.527 0.528464 -0.190681 -0.827264
11.6905 51.7397 384.668 0.504516 -0.0366707 -0.862623
11.8733 51.7528 384.757 0.384634 -0.0238092 -0.922762
12.0558 51.7612 384.821 0.195147 -0.072652 -0.978079
12.2378 51.7641 384.835 -0.110666 0.0156303 -0.993735
12.4169 51.7641 384.831 -0.416778 0.216005 -0.882971
12.5933 51.7484 384.714 -0.503762 0.373927 -0.778719
12.7691 51.7308 384.579 -0.515349 0.374821 -0.770665
12.9443 51.7113 384.431 -0.477571 0.245011 -0.843739
13.1213 51.6994 384.338 -0.216634 0.17149 -0.961073
13.2998 51.6982 384.32 0.0314181 0.0790526 -0.996375
13.481 51.6983 384.323 0.311411 -0.0612773 -0.948298
13.6638 51.7091 384.397 0.626891 -0.191057 -0.755317
13.8497 51.7309 384.554 0.756937 -0.321738 -0.568798
14.0386 51.7633 384.791 0.780421 -0.427259 -0.456501
15.7616 53.9603 401.094 0.367486 0.528243 -0.76545
15.9546 53.978 401.215 0.347477 0.503396 -0.791108
16.1448 53.9853 401.27 0.255893 0.508951 -0.821881
16.3352 53.9935 401.325 0.313897 0.501722 -0.806067
16.528 54.0094 401.439 0.325097 0.509734 -0.796545
16.7194 54.0202 401.513 0.254393 0.494407 -0.831171
16.9098 54.0276 401.563 0.258333 0.495865 -0.829085
17.1002 54.035 401.613 0.204372 0.493624 -0.845321
17.2918 54.0459 401.688 0.0818544 0.498545 -0.86299
17.4817 54.0459 401.688 0.00324179 0.507769 -0.861487
17.6677 54.0474 401.683 -0.0450328 0.511208 -0.858277
17.8568 54.0446 401.667 -0.0801196 0.51944 -0.850743
18.0438 54.0441 401.652 -0.103957 0.516758 -0.849796
18.2304 54.0394 401.612 -0.136605 0.505478 -0.851957
18.4179 54.0374 401.591 -0.227293 0.51931 -0.823805
18.6029 54.0284 401.517 -0.313447 0.513294 -0.798925
18.7871 54.0173 401.43 -0.359488 0.485377 -0.796981
18.9702 54.0031 401.318 -0.384265 0.499895 -0.776174
19.1544 53.9923 401.232 -0.36691 0.547313 -0.752214
19.3384 53.9814 401.125 -0.431739 0.533438 -0.727355
19.5189 53.9607 400.996 -0.429167 0.53035 -0.731126
19.7033 53.9513 400.909 -0.427297 0.542263 -0.723442
19.885 53.9347 400.77 -0.525016 0.530358 -0.665641
20.0635 53.9097 400.587 -0.524798 0.553952 -0.646316
24.8772 52.58 390.502 0.150456 -0.335102 -0.930091
25.0657 52.5914 390.549 0.306704 -0.290212 -0.906482
25.2504 52.5946 390.632 0.476026 -0.2469 -0.844061
25.4458 52.6201 390.776 0.741251 -0.143383 -0.655734
-15.9055 52.6388 389.887 -0.63677 -0.474471 -0.607784
-15.7161 52.616 389.723 -0.667017 -0.431924 -0.607067
-15.5264 52.5919 389.549 -0.669538 -0.348081 -0.65617
-15.3366 52.5667 389.367 -0.649468 -0.292256 -0.701982
-15.1482 52.5458 389.217 -0.553391 -0.332438 -0.763704
-14.9621 52.5325 389.124 -0.560452 -0.399397 -0.725517
-14.7739 52.5112 388.97 -0.662175 -0.299915 -0.686713
-14.5843 52.4844 388.777 -0.59668 -0.276824 -0.753221
-14.3987 52.4716 388.687 -0.592565 -0.326155 -0.736539
-14.2098 52.4464 388.504 -0.63291 -0.340491 -0.695335
-14.0215 52.4227 388.333 -0.575102 -0.362967 -0.733152
-13.8348 52.4041 388.2 -0.562991 -0.396145 -0.725334
-13.6479 52.3849 388.062 -0.547896 -0.409446 -0.729496
-13.4629 52.372 387.971 -0.59253 -0.328452 -0.735546
-13.2754 52.3493 387.806 -0.618046 -0.320804 -0.717708
-13.0889 52.3298 387.666 -0.616551 -0.279434 -0.736058
-12.9018 52.3059 387.494 -0.582627 -0.225909 -0.780712
-12.7162 52.29 387.381 -0.46897 -0.284993 -0.83597
-12.5321 52.2787 387.3 -0.536471 -0.312199 -0.784048
-12.3453 52.256 387.137 -0.565507 -0.321266 -0.759599
-12.1603 52.2401 387.022 -0.469795 -0.381493 -0.796088
-11.9754 52.2238 386.961 -0.429198 -0.401875 -0.808879
-11.7924 52.216 386.85 -0.42478 -0.414357 -0.804904
-11.6079 52.2009 386.767 -0.387422 -0.411931 -0.824753
-11.4254 52.1946 386.699 -0.192073 -0.421141 -0.886424
-11.2434 52.1946 386.699 0.148821 -0.433477 -0.888792
-11.0646 52.2006 386.724 0.306413 -0.470347 -0.827578
-10.8843 52.2045 386.804 0.318793 -0.533234 -0.783602
-0.198966 52.2651 387.407 -0.0510704 0.269047 -0.961772
-0.0177028 52.2715 387.385 -0.249238 0.359246 -0.899346
3.78474 52.192 386.795 -0.398707 0.50854 -0.763165
3.96564 52.19 386.762 -0.0739236 0.571386 -0.817345
4.14649 52.1899 386.762 0.0654194 0.513917 -0.855342
9.14907 51.8086 383.877 -0.774683 0.0470935 -0.630593
9.32611 51.7958 383.762 -0.500649 0.0190401 -0.865441
9.50355 51.7767 383.66 -0.396852 -0.0252202 -0.917536
9.68225 51.7765 383.614 -0.274195 -0.0166188 -0.96153
9.86044 51.7697 383.562 -0.196102 -0.00561297 -0.980567
10.0387 51.7619 383.527 -0.164179 -0.082886 -0.982942
10.2182 51.7612 383.504 -0.124455 -0.116457 -0.985367
10.3971 51.758 383.493 -0.032359 -0.127715 -0.991283
10.576 51.758 383.478 0.144842 -0.177432 -0.973416
10.7574 51.764 383.519 0.503673 -0.245167 -0.828376
10.9408 51.7818 383.644 0.7272 -0.329206 -0.602332
11.1258 51.8069 383.827 0.818389 -0.401589 -0.411055
11.3205 51.8751 384.329 0.753513 -0.488256 -0.440255
11.5065 51.9023 384.526 0.600216 -0.401024 -0.692041
11.6914 51.9243 384.671 0.516752 -0.089153 -0.85148
11.8737 51.9317 384.737 0.346605 -0.0248578 -0.937682
12.0551 51.9389 384.786 0.276146 -0.0921293 -0.95669
12.2381 51.9507 384.866 0.12236 -0.0205414 -0.992273
12.4183 51.9507 384.866 -0.22318 0.0971632 -0.969923
12.5972 51.945 384.82 -0.54555 0.16876 -0.820911
12.7714 51.9206 384.635 -0.65053 0.229176 -0.724078
12.9454 51.8959 384.447 -0.555194 0.194851 -0.808575
13.1231 51.887 384.378 -0.306294 0.158797 -0.938599
13.2998 51.8765 384.321 -0.111326 0.0951352 -0.98922
13.481 51.8765 384.31 0.140305 -0.0152199 -0.989991
13.662 51.8826 384.348 0.452855 -0.107014 -0.885139
13.8464 51.8989 384.449 0.676609 -0.226237 -0.700726
14.0338 51.926 384.645 0.785566 -0.329839 -0.523538
14.2241 51.9632 384.916 0.811561 -0.40805 -0.418168
15.767 54.167 401.221 0.34456 0.478258 -0.807805
15.9604 54.1855 401.349 0.331026 0.50655 -0.796134
16.1505 54.1928 401.397 0.260099 0.507569 -0.821415
16.3431 54.2079 401.504 0.322916 0.516546 -0.793036
16.5342 54.2179 401.573 0.291844 0.499516 -0.815666
16.7243 54.2246 401.617 0.268144 0.443501 -0.855222
16.9165 54.2375 401.707 0.254904 0.449016 -0.856393
17.1073 54.2458 401.763 0.199163 0.472601 -0.858477
17.2962 54.2481 401.775 0.0952285 0.432554 -0.896565
17.4861 54.2486 401.775 0.0080976 0.409404 -0.912317
17.6728 54.2523 401.79 -0.0330618 0.44945 -0.892694
17.8622 54.2486 401.768 -0.0864046 0.471193 -0.877788
18.0485 54.2466 401.742 -0.122576 0.47744 -0.870073
18.2357 54.2435 401.712 -0.108066 0.476436 -0.872542
18.4238 54.2432 401.704 -0.228553 0.473129 -0.85083
18.607 54.2288 401.592 -0.357582 0.450738 -0.817906
18.792 54.2196 401.519 -0.342503 0.453809 -0.822648
18.9777 54.2127 401.461 -0.323348 0.495746 -0.806028
19.1629 54.2048 401.396 -0.372675 0.527698 -0.763314
19.3449 54.1876 401.263 -0.443871 0.514596 -0.733601
19.5265 54.1699 401.145 -0.409831 0.541587 -0.733977
19.7099 54.1576 401.028 -0.397077 0.558256 -0.728478
19.8934 54.1455 400.933 -0.505475 0.508688 -0.696944
24.8723 52.7528 390.45 0.180728 -0.3549 -0.91727
25.0613 52.7652 390.494 0.32594 -0.281205 -0.9026
25.2484 52.7738 390.579 0.514256 -0.265544 -0.815492
25.4435 52.7987 390.725 0.769508 -0.180898 -0.612481
-16.0926 52.8359 389.973 -0.728416 -0.216872 -0.649905
-15.9017 52.8086 389.776 -0.648241 -0.34254 -0.680037
-15.7131 52.7883 389.631 -0.630753 -0.345065 -0.69504
-15.524 52.766 389.471 -0.638687 -0.299378 -0.708838
-15.3364 52.748 389.343 -0.653682 -0.303532 -0.69323
-15.1455 52.7185 389.13 -0.604232 -0.328108 -0.726119
-14.958 52.7 388.998 -0.507988 -0.402374 -0.761606
-14.7726 52.6884 388.913 -0.626369 -0.367274 -0.687584
-14.5823 52.6592 388.706 -0.623272 -0.316167 -0.715241
-14.3954 52.6415 388.58 -0.611757 -0.329369 -0.719215
-14.2065 52.6137 388.379 -0.63936 -0.307066 -0.704932
-14.0207 52.6011 388.291 -0.609596 -0.264711 -0.747209
-13.8326 52.5743 388.102 -0.589665 -0.245079 -0.769566
-13.6469 52.5624 388.014 -0.513948 -0.222291 -0.828519
-13.4606 52.5445 387.886 -0.601592 -0.256594 -0.75647
-13.2725 52.519 387.702 -0.58975 -0.322413 -0.740435
-13.0884 52.5087 387.63 -0.567845 -0.344399 -0.747624
-12.9015 52.4883 387.483 -0.601004 -0.286853 -0.745996
-12.7157 52.469 387.345 -0.505949 -0.255178 -0.823954
-12.5308 52.4544 387.241 -0.551782 -0.289159 -0.782255
-12.3445 52.4336 387.092 -0.59028 -0.318497 -0.741707
-12.1596 52.4177 386.96 -0.484375 -0.331742 -0.809523
-11.9734 52.3961 386.85 -0.440629 -0.381438 -0.81262
-11.7904 52.388 386.754 -0.41376 -0.414826 -0.810384
-11.6058 52.3722 386.692 -0.367551 -0.422168 -0.828662
-11.4231 52.3646 386.601 -0.199526 -0.447849 -0.871562
-11.2419 52.3646 386.601 0.0848788 -0.421968 -0.902629
-11.0619 52.3689 386.639 0.228939 -0.437806 -0.869432
-10.8818 52.3734 386.676 0.425236 -0.442258 -0.789672
-0.92488 52.4752 387.528 0.118882 0.401949 -0.907912
-0.743605 52.4857 387.549 -0.219363 0.297777 -0.92909
-0.562153 52.4856 387.548 -0.218343 0.453944 -0.863864
-0.380681 52.4834 387.511 0.0688067 0.570138 -0.818662
-0.199205 52.4762 387.5 0.0625332 0.444398 -0.893644
-0.0177781 52.4734 387.5 -0.0200581 0.341931 -0.939511
3.7871 52.405 386.949 -0.423079 0.279096 -0.862038
3.9664 52.3962 386.817 -0.17322 0.431849 -0.885156
4.14706 52.3765 386.816 0.0543379 0.352474 -0.934243
9.32651 51.9738 383.777 -0.523765 0.110345 -0.844686
9.50369 51.9622 383.66 -0.382063 0.0873048 -0.920003
9.6823 51.9564 383.626 -0.260538 0.0597186 -0.963615
9.86061 51.9488 383.563 -0.2689 0.0170532 -0.963017
10.0387 51.9415 383.513 -0.19629 -0.0210537 -0.98032
10.2181 51.9364 383.478 -0.135433 -0.0746791 -0.987968
10.3966 51.9354 383.45 -0.0851959 -0.123143 -0.988725
10.5759 51.9338 383.443 0.0356059 -0.136772 -0.989962
10.7548 51.9338 383.45 0.329117 -0.171615 -0.928564
10.9383 51.9491 383.528 0.601848 -0.221973 -0.767142
11.1225 51.9714 383.698 0.841334 -0.27071 -0.467839
11.3143 52.027 384.105 0.821613 -0.431296 -0.372741
11.5046 52.0743 384.451 0.696853 -0.510399 -0.503874
11.6914 52.1046 384.67 0.55384 -0.292526 -0.779544
11.8737 52.114 384.736 0.289117 -0.0987983 -0.952182
12.0551 52.1195 384.772 0.338695 -0.0190386 -0.940704
12.239 52.1356 384.87 0.236728 -0.012987 -0.971489
12.4196 52.1357 384.87 -0.124098 0.0371699 -0.991574
12.5978 52.1281 384.825 -0.482861 0.113068 -0.868367
12.774 52.1118 384.7 -0.678005 0.239708 -0.694873
12.9471 52.0833 384.485 -0.566892 0.309894 -0.763282
13.1246 52.0732 384.407 -0.357994 0.237323 -0.90306
13.3008 52.0662 384.322 -0.21776 0.131497 -0.967103
13.4825 52.0618 384.31 0.038504 0.0367011 -0.998584
13.6618 52.0663 384.322 0.298266 -0.050001 -0.953172
13.845 52.0742 384.397 0.547724 -0.194402 -0.813761
14.0292 52.0895 384.506 0.726967 -0.290293 -0.622294
14.2186 52.1238 384.754 0.773549 -0.391016 -0.498727
15.9675 54.398 401.479 0.318896 0.499143 -0.805706
16.1565 54.4012 401.531 0.287689 0.513573 -0.80838
16.3484 54.4139 401.619 0.29318 0.51513 -0.805411
16.5385 54.4205 401.662 0.21153 0.517846 -0.828909
16.7293 54.4291 401.721 0.265052 0.478139 -0.837335
16.9207 54.4394 401.792 0.276975 0.440515 -0.85395
17.1113 54.4471 401.843 0.144191 0.397282 -0.906298
17.3003 54.4493 401.854 0.0639056 0.375026 -0.924809
17.4902 54.4546 401.887 0.0587323 0.432732 -0.899607
17.6807 54.4571 401.895 -0.00191564 0.461058 -0.887368
17.8676 54.4571 401.895 -0.0757947 0.47927 -0.874389
18.0552 54.455 401.873 -0.121215 0.512877 -0.849861
18.2411 54.4516 401.837 -0.0980682 0.531323 -0.841474
18.4305 54.4481 401.816 -0.22866 0.514775 -0.82627
18.6143 54.4384 401.733 -0.339104 0.512058 -0.78918
18.7992 54.4289 401.657 -0.269765 0.542648 -0.795462
18.9845 54.4206 401.59 -0.261082 0.50974 -0.819757
19.1698 54.4125 401.524 -0.380864 0.489349 -0.784526
19.3523 54.3966 401.401 -0.425967 0.498199 -0.755215
19.5369 54.3869 401.323 -0.399534 0.517976 -0.756355
24.8712 52.9336 390.377 0.24406 -0.28417 -0.92719
25.0594 52.9446 390.45 0.311822 -0.308516 -0.898657
25.2454 52.9508 390.494 0.525688 -0.266009 -0.808017
25.4423 52.9795 390.691 0.790722 -0.185808 -0.583296
-16.0906 53.0118 389.906 -0.76419 -0.250565 -0.594333
-15.8988 52.9804 389.68 -0.657172 -0.260687 -0.707225
-15.7117 52.9658 389.577 -0.610977 -0.283054 -0.739316
-15.5216 52.94 389.392 -0.634267 -0.362744 -0.682732
-15.3319 52.9146 389.211 -0.639323 -0.403628 -0.654485
-15.1432 52.8924 389.052 -0.626356 -0.362814 -0.68996
-14.9555 52.873 388.918 -0.519098 -0.360032 -0.775186
-14.7696 52.8595 388.799 -0.5825 -0.411901 -0.700736
-14.5803 52.8337 388.634 -0.617382 -0.385898 -0.685509
-14.3933 52.8155 388.505 -0.60179 -0.336954 -0.724093
-14.2059 52.7973 388.375 -0.606808 -0.309168 -0.732256
-14.0183 52.7739 388.208 -0.591412 -0.286303 -0.753832
-13.8317 52.7587 388.096 -0.56562 -0.235547 -0.790311
-13.6461 52.7407 387.972 -0.552984 -0.231221 -0.800466
-13.4589 52.7191 387.817 -0.639606 -0.270384 -0.719581
-13.2714 52.6959 387.651 -0.604463 -0.290297 -0.741857
-13.0845 52.6743 387.497 -0.532594 -0.337407 -0.776209
-12.8993 52.6592 387.39 -0.554902 -0.369863 -0.745175
-12.7136 52.6416 387.264 -0.522985 -0.388959 -0.758418
-12.5286 52.6262 387.154 -0.572249 -0.352948 -0.740243
-12.341 52.5994 386.979 -0.573681 -0.364431 -0.733539
-12.1574 52.5893 386.891 -0.503827 -0.42305 -0.753118
-11.9719 52.5702 386.761 -0.463297 -0.403516 -0.789006
-11.7888 52.5613 386.692 -0.41388 -0.400116 -0.817686
-11.6039 52.5442 386.571 -0.368463 -0.417418 -0.830661
-11.4219 52.5397 386.54 -0.163047 -0.402454 -0.900803
-11.2401 52.5383 386.537 0.056487 -0.387165 -0.920279
-11.0596 52.5383 386.546 0.189466 -0.404758 -0.89458
-10.8804 52.5471 386.606 0.351529 -0.411149 -0.841061
-1.46973 52.6852 387.721 -0.0188041 0.351143 -0.936133
-1.28866 52.6858 387.712 -0.197101 0.338755 -0.919998
-1.10699 52.6856 387.696 -0.211685 0.417401 -0.883723
-0.925235 52.6724 387.628 0.00348332 0.484675 -0.874688
-0.743723 52.6723 387.607 -0.00803355 0.314128 -0.949347
-0.562288 52.6616 387.606 -0.0688783 0.203993 -0.976546
-0.380698 52.6565 387.591 -0.151095 0.234123 -0.960394
-0.199276 52.656 387.538 -0.0831136 0.266807 -0.960159
-0.0178569 52.656 387.537 -0.00715023 0.247408 -0.968885
0.163583 52.659 387.517 -0.0616369 0.207595 -0.976271
3.78729 52.5881 386.996 -0.301043 0.0522484 -0.952178
3.96713 52.5892 386.948 -0.306531 0.210132 -0.928377
4.14901 52.5717 386.87 -0.140025 0.248693 -0.958407
9.32766 52.1625 383.798 -0.546006 0.101688 -0.831587
9.50484 52.1486 383.693 -0.405611 0.130916 -0.904622
9.6829 52.1399 383.626 -0.297969 0.106286 -0.94864
9.861 52.1317 383.563 -0.303973 0.00349269 -0.952674
10.0394 52.1256 383.511 -0.246262 0.00403086 -0.969195
10.2182 52.1194 383.465 -0.179869 0.0216838 -0.983452
10.3966 52.1172 383.443 -0.0978448 0.000102673 -0.995202
10.5765 52.1151 383.43 -0.01207 -0.0398513 -0.999133
10.7548 52.1172 383.434 0.239594 -0.0417651 -0.969974
10.9381 52.1294 383.522 0.44162 -0.116338 -0.889627
11.1188 52.1299 383.544 0.767485 -0.209353 -0.605919
11.3071 52.1741 383.847 0.86465 -0.323621 -0.384252
11.5016 52.2411 384.336 0.792149 -0.466364 -0.393707
11.6896 52.2769 384.597 0.641493 -0.430806 -0.634738
11.8739 52.2967 384.736 0.359229 -0.153408 -0.920554
12.0553 52.3008 384.772 0.346241 -0.0393604 -0.937319
12.239 52.3156 384.87 0.28577 -0.0100946 -0.958245
12.4204 52.3157 384.888 -0.0324971 0.0425404 -0.998566
12.5993 52.3146 384.891 -0.307225 0.161558 -0.937823
12.7784 52.3101 384.817 -0.650527 0.243787 -0.719293
12.9504 52.277 384.569 -0.632716 0.312785 -0.708404
13.1266 52.2614 384.45 -0.435394 0.32337 -0.840157
13.3023 52.2451 384.348 -0.301617 0.217663 -0.928251
13.4825 52.2443 384.31 -0.0521299 0.0978787 -0.993832
13.6618 52.245 384.31 0.125186 -0.0332735 -0.991575
13.8426 52.2452 384.314 0.405607 -0.1683 -0.89842
14.0277 52.2641 384.449 0.633233 -0.250725 -0.732225
14.2124 52.2812 384.57 0.716914 -0.313685 -0.622605
14.3999 52.3082 384.764 0.765457 -0.377694 -0.520983
16.1626 54.6103 401.668 0.301065 0.480445 -0.823731
16.3554 54.6257 401.776 0.294197 0.45935 -0.83812
16.5462 54.6343 401.828 0.168033 0.51263 -0.842007
16.735 54.6361 401.842 0.210532 0.5231 -0.825859
16.9265 54.6468 401.912 0.202205 0.477575 -0.855006
17.115 54.6472 401.916 0.105701 0.465186 -0.878879
17.3051 54.653 401.95 0.13049 0.449386 -0.883756
17.4955 54.6598 401.994 0.0915189 0.456962 -0.884765
17.6854 54.6616 401.997 0.0237923 0.462464 -0.886319
17.8728 54.6643 402.011 -0.0248454 0.440011 -0.897649
18.062 54.6616 401.996 -0.101348 0.425409 -0.899308
18.2492 54.6609 401.98 -0.117652 0.453115 -0.883654
18.4363 54.6573 401.947 -0.217252 0.476856 -0.85171
18.6235 54.654 401.881 -0.324898 0.459861 -0.82642
18.8072 54.6404 401.796 -0.336818 0.470133 -0.8158
18.9901 54.6251 401.693 -0.269187 0.483019 -0.833205
19.1774 54.6226 401.669 -0.361963 0.472468 -0.80359
19.3592 54.6045 401.525 -0.410663 0.493504 -0.766687
24.6849 53.1111 390.319 -0.127064 -0.337053 -0.932872
24.8686 53.1112 390.32 0.213477 -0.246308 -0.945389
25.0543 53.1168 390.377 0.320693 -0.299644 -0.898537
25.2445 53.132 390.457 0.527015 -0.210815 -0.823293
25.4378 53.1535 390.607 0.800906 -0.164824 -0.575658
-16.0877 53.1844 389.815 -0.729836 -0.369815 -0.574957
-15.8985 53.1633 389.666 -0.654041 -0.318694 -0.68605
-15.7079 53.1353 389.465 -0.66572 -0.288438 -0.688201
-15.5171 53.1066 389.26 -0.666729 -0.337347 -0.664582
-15.3291 53.087 389.121 -0.610532 -0.392709 -0.687771
-15.1412 53.0671 388.98 -0.60376 -0.352404 -0.715042
-14.9518 53.0418 388.82 -0.573345 -0.377996 -0.726907
-14.765 53.025 388.681 -0.575473 -0.396202 -0.71544
-14.5776 53.0056 388.543 -0.584419 -0.354203 -0.730065
-14.3907 52.9873 388.414 -0.572805 -0.400352 -0.715271
-14.2024 52.9637 388.245 -0.569784 -0.420389 -0.70613
-14.0171 52.9506 388.154 -0.541619 -0.367523 -0.756026
-13.8305 52.9323 388.024 -0.553288 -0.313843 -0.771605
-13.6436 52.9125 387.883 -0.580316 -0.360397 -0.730306
-13.4577 52.8957 387.747 -0.635024 -0.340089 -0.693602
-13.269 52.8675 387.562 -0.618085 -0.314773 -0.72034
-13.084 52.8536 387.464 -0.562662 -0.335828 -0.755401
-12.897 52.831 387.302 -0.562757 -0.365469 -0.741443
-12.7111 52.8122 387.168 -0.500868 -0.416721 -0.758601
-12.527 52.8004 387.083 -0.570859 -0.410046 -0.711324
-12.3397 52.7748 386.902 -0.602962 -0.344744 -0.719436
-12.154 52.7551 386.762 -0.491227 -0.344172 -0.800151
-11.9709 52.7468 386.692 -0.44958 -0.417998 -0.789402
-11.7855 52.7275 386.57 -0.418855 -0.429207 -0.800214
-11.6031 52.7215 386.526 -0.33155 -0.403457 -0.852817
-11.4199 52.7114 386.456 -0.136524 -0.417197 -0.898503
-11.2379 52.7113 386.455 0.0286058 -0.498864 -0.866208
-11.0583 52.7129 386.474 0.154906 -0.49634 -0.854196
-10.8792 52.7167 386.508 0.190595 -0.50719 -0.840495
-1.47044 52.872 387.775 -0.0266908 0.200869 -0.979254
-1.28869 52.8704 387.732 -0.0990568 0.17713 -0.97919
-1.10702 52.8677 387.727 -0.154138 0.169718 -0.973364
-0.925514 52.8655 387.697 -0.234964 0.186864 -0.953873
-0.743828 52.8533 387.631 -0.130288 0.192011 -0.972706
-0.562328 52.8531 387.619 -0.0371109 0.146578 -0.988503
-0.380927 52.8519 387.619 -0.121061 0.139331 -0.982818
-0.199406 52.852 387.598 -0.105827 0.210807 -0.971783
-0.0179391 52.8519 387.594 -0.0480692 0.260107 -0.964383
0.163522 52.85 387.583 -0.0667691 0.240005 -0.968473
0.344976 52.8456 387.551 -0.0631171 0.195526 -0.978665
3.0642 52.7988 387.2 -0.0543589 0.183424 -0.98153
3.24522 52.7987 387.199 -0.396693 0.275508 -0.875631
3.42594 52.7901 387.114 -0.283297 0.444209 -0.849954
3.60586 52.7742 387.005 -0.137656 0.388564 -0.911081
3.78712 52.7699 386.984 -0.13772 0.157472 -0.977873
3.96714 52.7655 386.948 -0.301944 0.00460064 -0.953315
4.14901 52.7559 386.879 -0.260069 0.0641337 -0.963458
9.68357 52.3236 383.626 -0.395869 0.00522389 -0.918292
9.86138 52.3138 383.564 -0.302371 0.019352 -0.952994
10.0397 52.3074 383.514 -0.228722 0.0238973 -0.973198
10.2193 52.3069 383.493 -0.199863 0.0588646 -0.978054
10.3967 52.2978 383.435 -0.136383 0.0278296 -0.990265
10.5766 52.296 383.429 -0.015134 -0.0127495 -0.999804
10.7548 52.2977 383.433 0.156194 -0.0620809 -0.985773
10.9364 52.301 383.451 0.271704 -0.23002 -0.934488
11.1178 52.314 383.528 0.613686 -0.197095 -0.764554
11.3029 52.3349 383.692 0.868359 -0.171326 -0.465402
11.4944 52.3888 384.083 0.874894 -0.313135 -0.369467
11.6893 52.4562 384.573 0.770481 -0.38271 -0.509797
11.8739 52.4757 384.713 0.453549 -0.20456 -0.867438
12.0554 52.49 384.765 0.37195 0.0236731 -0.927951
12.239 52.4913 384.87 0.321607 0.0817496 -0.943338
12.4215 52.5056 384.901 0.0956502 0.112162 -0.989076
12.6029 52.5056 384.921 -0.158457 0.169574 -0.972695
12.7818 52.5044 384.854 -0.608605 0.200794 -0.767647
12.9542 52.4728 384.663 -0.673405 0.23809 -0.699885
13.1294 52.4531 384.519 -0.54658 0.246868 -0.800192
13.3043 52.4322 384.383 -0.404925 0.240449 -0.882168
13.4825 52.4232 384.321 -0.176694 0.196445 -0.964463
13.662 52.4231 384.288 -0.0295726 0.0395607 -0.998779
13.8423 52.4236 384.297 0.281757 -0.0668447 -0.957155
14.025 52.4345 384.362 0.564162 -0.169019 -0.808179
14.212 52.4602 384.543 0.662029 -0.219215 -0.716702
14.3983 52.4828 384.707 0.769008 -0.257198 -0.585214
14.5885 52.5186 384.964 0.781811 -0.378299 -0.495643
16.169 54.8203 401.777 0.292974 0.40196 -0.867522
16.3582 54.8234 401.835 0.332956 0.482745 -0.809998
16.552 54.8421 401.957 0.199216 0.464565 -0.86284
16.7405 54.8425 401.961 0.151085 0.482308 -0.862874
16.9315 54.8514 402.018 0.173158 0.481965 -0.85891
17.1216 54.8571 402.054 0.0834458 0.506594 -0.858137
17.3105 54.8589 402.062 0.127414 0.526067 -0.840844
17.5013 54.8663 402.105 0.091679 0.493598 -0.864845
17.6897 54.8664 402.105 -0.00740577 0.456069 -0.889914
17.8766 54.865 402.084 -0.044097 0.418027 -0.907364
18.066 54.8624 402.067 -0.0652146 0.391905 -0.917691
18.2535 54.8623 402.059 -0.0775438 0.408549 -0.909437
18.4418 54.8619 402.05 -0.232734 0.422507 -0.87597
18.6265 54.8511 401.95 -0.318037 0.420465 -0.849742
18.8112 54.8406 401.906 -0.350134 0.392577 -0.850464
18.9957 54.8319 401.812 -0.279242 0.414462 -0.866167
19.1847 54.8296 401.778 -0.338594 0.397097 -0.853035
19.3669 54.8145 401.669 -0.477787 0.424776 -0.768951
24.6827 53.2873 390.267 -0.0389435 -0.411634 -0.910517
24.8652 53.2882 390.267 0.144846 -0.308799 -0.940033
25.0521 53.2954 390.32 0.379716 -0.244676 -0.89216
25.2442 53.3145 390.436 0.50058 -0.247503 -0.829556
25.4339 53.3285 390.531 0.809632 -0.136721 -0.570792
-16.2752 53.3829 389.91 -0.666404 -0.214997 -0.71392
-16.0844 53.3558 389.717 -0.693439 -0.332457 -0.63923
-15.8942 53.3304 389.536 -0.630069 -0.366121 -0.684812
-15.7068 53.3137 389.419 -0.68219 -0.354871 -0.639283
