-17.4679 3.41573 359.444 -0.47474 -0.15396 -0.866556
-17.3071 3.43256 359.373 -0.47682 0.0663408 -0.876494
-17.1682 3.44801 359.279 -0.500073 0.0565588 -0.864135
-17.0198 3.46399 359.195 -0.430607 0.113726 -0.895346
-16.8245 3.48573 359.156 -0.487933 0.182595 -0.853569
-16.7048 3.49815 359.044 -0.828797 0.174287 -0.531714
-15.7618 3.60224 358.813 -0.373734 0.467641 -0.801021
-15.6179 3.61773 358.722 -0.568391 0.296971 -0.767294
-15.5021 3.62975 358.608 -0.770023 0.260373 -0.582469
-13.9259 3.80437 358.294 -0.215664 0.125003 -0.968433
-13.747 3.82395 358.237 -0.400675 0.0565473 -0.914474
-13.588 3.84128 358.161 -0.398168 0.0716365 -0.914511
-13.4099 3.86036 358.103 -0.17933 0.126141 -0.975669
-13.1951 3.88432 358.079 -0.146627 0.000217789 -0.989192
-12.9988 3.90669 358.038 -0.323154 -0.0486872 -0.945093
-12.8501 3.92343 357.952 -0.175135 -0.0523797 -0.98315
-12.6022 3.95049 357.959 -0.00545494 -0.0625649 -0.998026
-9.9254 4.25001 357.748 -0.0125875 0.00557063 -0.999905
-9.64752 4.28138 357.78 -0.00037646 0.131114 -0.991367
-9.42747 4.30596 357.759 -0.00870934 0.176791 -0.98421
-9.17313 4.33408 357.768 0.0275715 0.159141 -0.986871
-8.90328 4.36586 357.792 0.0569431 0.162731 -0.985026
-8.63636 4.39541 357.813 0.079912 0.153258 -0.98495
-8.36593 4.42603 357.837 0.0234948 0.152393 -0.988041
-8.12963 4.45255 357.829 -0.00868767 0.184975 -0.982705
-7.85803 4.48331 357.853 0.0391449 0.200577 -0.978896
-7.58782 4.5139 357.876 0.017249 0.158047 -0.987281
-7.35766 4.53932 357.862 -0.027473 0.20278 -0.978839
-7.12582 4.56507 357.849 0.0831421 0.231255 -0.969334
-6.78877 4.60356 357.932 0.101082 0.193018 -0.975975
-6.54972 4.63125 357.925 0.100102 0.107129 -0.989193
-6.23199 4.66696 357.99 0.102415 0.0674289 -0.992454
-5.97813 4.69681 357.997 0.0716741 0.126896 -0.989323
-5.67447 4.73063 358.048 0.105431 0.178616 -0.978254
-5.38375 4.76366 358.088 0.0492311 0.188597 -0.98082
-5.12139 4.79329 358.101 0.0283467 0.21846 -0.975434
-4.88384 4.8197 358.091 0.0832077 0.234032 -0.968662
-4.57892 4.85469 358.143 0.108984 0.224985 -0.968248
-4.27459 4.88936 358.193 0.0714646 0.2552 -0.964244
-4.02244 4.91776 358.196 0.0209458 0.290498 -0.956646
-3.77098 4.94608 358.198 0.094898 0.216711 -0.971613
-3.41018 4.98751 358.299 0.147349 0.173267 -0.97379
-3.14745 5.01728 358.311 0.135328 0.135449 -0.981499
-2.84202 5.05197 358.361 0.126725 0.103565 -0.986517
-2.53555 5.087 358.411 0.110348 0.147956 -0.982819
-2.24715 5.11962 358.445 -0.024648 0.134568 -0.990598
-2.02595 5.14431 358.418 0.0501099 0.214697 -0.975394
-1.69176 5.18254 358.493 0.137169 0.258312 -0.956274
-1.4191 5.21339 358.512 0.064877 0.201412 -0.977356
-1.15698 5.24463 358.521 0.0879661 0.176488 -0.980364
-0.866008 5.27704 358.556 0.103129 0.163444 -0.981148
-0.549476 5.31213 358.614 0.105481 0.144287 -0.983898
-0.271258 5.34363 358.636 0.105219 0.169664 -0.979869
0.0573689 5.38119 358.704 0.0953522 0.25484 -0.962271
0.35699 5.41526 358.745 0.102655 0.329937 -0.938405
0.627679 5.44582 358.761 0.084385 0.273612 -0.958131
0.925736 5.47813 358.8 -0.0323705 0.182356 -0.9827
1.16731 5.50757 358.788 0.0528617 0.216631 -0.974821
1.49696 5.54265 358.855 0.15768 0.234492 -0.959245
1.78706 5.57701 358.887 0.0891559 0.21075 -0.973466
2.06063 5.60839 358.903 0.107455 0.186062 -0.976644
2.38309 5.64592 358.963 0.0903675 0.160003 -0.982971
2.63036 5.6727 358.955 0.0754581 0.186632 -0.979528
2.9647 5.71187 359.025 0.122959 0.188186 -0.974406
3.24879 5.74298 359.049 0.0614769 0.101972 -0.992886
3.53917 5.77633 359.079 0.0460061 0.138176 -0.989339
3.8347 5.8099 359.113 0.106022 0.26091 -0.959524
4.12638 5.843 359.143 0.1082 0.231706 -0.96675
4.43038 5.87757 359.184 0.0940733 0.219474 -0.971072
4.73212 5.91147 359.223 0.0791779 0.182613 -0.979992
5.0307 5.94648 359.259 0.0781331 0.171939 -0.982004
5.30568 5.97707 359.273 0.0578298 0.163894 -0.984781
5.57131 6.0072 359.279 -0.0016136 0.085189 -0.996363
5.86227 6.03987 359.307 0.109195 0.209898 -0.971607
6.16924 6.07478 359.349 0.109629 0.18108 -0.977339
6.46714 6.10969 359.382 0.0805479 0.153955 -0.984789
6.76082 6.14165 359.411 0.135511 0.138978 -0.98098
7.09746 6.18041 359.478 0.0665393 0.0909155 -0.993633
7.33047 6.20647 359.454 0.0369884 0.238399 -0.970463
7.65917 6.24398 359.513 0.0821315 0.259158 -0.962337
7.9486 6.27679 359.538 0.0682197 0.221943 -0.97267
8.24456 6.31038 359.567 0.0603166 0.238444 -0.969281
8.51151 6.3405 359.572 0.118777 0.186236 -0.975299
8.87922 6.38267 359.664 0.14114 0.1882 -0.971936
9.1655 6.41511 359.684 0.112045 0.138806 -0.983961
9.51173 6.45561 359.757 0.117926 0.162787 -0.979589
9.81985 6.48973 359.796 0.0931214 0.24594 -0.964801
10.1059 6.52212 359.815 0.122616 0.20223 -0.971632
10.481 6.56517 359.912 0.102615 0.232516 -0.967164
10.7184 6.59131 359.888 0.0978136 0.20965 -0.972872
11.0569 6.6304 359.952 0.129028 0.164908 -0.977833
11.3804 6.66727 360.003 0.159527 0.208202 -0.964989
11.7515 6.70982 360.094 0.108724 0.250558 -0.961977
12.0046 6.73827 360.083 0.0851535 0.275351 -0.957565
12.3714 6.78031 360.171 0.11724 0.267258 -0.956466
12.6567 6.81273 360.187 0.143075 0.182801 -0.972684
13.0738 6.86064 360.316 0.131594 0.232423 -0.963672
13.362 6.89328 360.335 0.115904 0.37555 -0.919526
13.7214 6.93442 360.414 0.123045 0.34989 -0.928675
13.9952 6.96534 360.419 0.0771756 0.253664 -0.964209
14.323 7.0027 360.47 0.12625 0.25273 -0.959265
14.6636 7.04206 360.532 0.111624 0.258942 -0.959421
14.9511 7.07348 360.548 0.0599983 0.210072 -0.975843
15.2554 7.10868 360.578 -0.0403595 0.236888 -0.970698
15.5107 7.1357 360.558 -0.107629 0.291191 -0.950591
-29.2166 2.4625 382.505 -0.920511 -0.0837979 -0.381625
-29.1369 2.47021 382.344 -0.931031 -0.0242507 -0.364133
-29.0775 2.47641 382.16 -0.899932 0.0431411 -0.433891
-28.9785 2.48546 382.02 -0.827038 0.103856 -0.552469
-28.8837 2.49444 381.875 -0.834086 0.0870541 -0.544722
-28.794 2.50357 381.726 -0.8375 0.0737192 -0.541441
-28.6878 2.51431 381.595 -0.848397 0.0680151 -0.524973
-28.6015 2.52344 381.442 -0.852157 0.0980125 -0.514025
-28.5119 2.53091 381.29 -0.817231 0.145043 -0.557759
-28.4095 2.54149 381.155 -0.813592 0.13779 -0.564873
-28.3147 2.55143 381.014 -0.784441 0.121215 -0.608243
-28.2049 2.56231 380.883 -0.798505 0.0652797 -0.598438
-28.1159 2.57139 380.736 -0.853194 0.0289771 -0.520788
-28.02 2.58074 380.593 -0.835727 0.120371 -0.535791
-27.9222 2.59032 380.452 -0.78388 0.193157 -0.590104
-27.8107 2.6007 380.324 -0.790844 0.160611 -0.590567
-27.7151 2.61064 380.183 -0.815043 0.123056 -0.566182
-27.6054 2.62189 380.055 -0.819426 0.118538 -0.560794
-27.5182 2.63078 379.905 -0.824506 0.139023 -0.548509
-27.4268 2.63987 379.758 -0.785534 0.135359 -0.603833
-27.3223 2.65002 379.623 -0.78226 0.0474702 -0.621141
-27.2193 2.66004 379.489 -0.831286 -0.0118722 -0.555719
-27.1218 2.66979 379.349 -0.810368 0.0475547 -0.583988
-27.0196 2.68016 379.213 -0.791281 0.062486 -0.608252
-26.9207 2.69031 379.074 -0.847032 0.0209469 -0.531129
-26.8336 2.69888 378.924 -0.847795 0.0395865 -0.528845
-26.7266 2.70915 378.793 -0.80501 0.098674 -0.584998
-26.6358 2.71796 378.645 -0.788001 0.0995633 -0.607571
-26.521 2.7297 378.524 -0.787461 0.0519063 -0.614176
-17.4647 3.58161 359.463 -0.314618 0.0267399 -0.948842
-17.3235 3.59627 359.374 -0.484033 0.0721565 -0.87207
-17.1643 3.61363 359.3 -0.457109 0.119836 -0.881301
-16.9913 3.63224 359.24 -0.372371 0.167147 -0.912908
-16.8351 3.6495 359.162 -0.467896 0.111167 -0.876764
-16.6923 3.66526 359.072 -0.673037 0.104043 -0.732254
-15.5984 3.78546 358.759 -0.566412 0.422532 -0.707562
-15.4389 3.80289 358.684 -0.644549 0.305179 -0.701015
-13.9034 3.97268 358.332 -0.272094 0.257979 -0.927045
-13.7664 3.98803 358.235 -0.390597 0.0934396 -0.915807
-13.5753 4.00922 358.189 -0.351978 0.0505475 -0.934642
-13.4155 4.02619 358.114 -0.28113 0.0528132 -0.958216
-13.2334 4.04763 358.059 -0.16197 -0.0678032 -0.984463
-9.41604 4.47492 357.785 0.000550731 9.71074e-005 -1
-9.14286 4.50567 357.812 0.03568 0.125352 -0.991471
-8.90805 4.53184 357.804 0.0591071 0.104763 -0.992739
-8.62063 4.56488 357.843 0.0872904 0.0684611 -0.993828
-8.35457 4.59506 357.863 0.0484311 0.108241 -0.992944
-8.07885 4.62642 357.892 0.00622271 0.186437 -0.982447
-7.85174 4.65192 357.875 0.0113697 0.179029 -0.983778
-7.60391 4.68044 357.877 0.0516863 0.0908003 -0.994527
-7.29818 4.71488 357.932 0.0132286 0.144371 -0.989435
-7.04924 4.74345 357.935 0.0581745 0.244098 -0.968004
-6.77807 4.7738 357.958 0.0428149 0.218673 -0.974859
-6.55975 4.79809 357.932 0.0660754 0.181577 -0.981154
-6.24263 4.83494 357.997 0.126219 0.139683 -0.982119
-5.95818 4.86616 358.031 0.10169 0.156062 -0.982499
-5.65935 4.902 358.078 0.103045 0.20913 -0.972444
-5.39791 4.93072 358.091 0.0699571 0.163261 -0.9841
-5.1135 4.96311 358.124 0.0515896 0.172685 -0.983625
-4.82018 4.99657 358.165 0.0762578 0.265031 -0.96122
-4.52535 5.03021 358.207 0.117733 0.257181 -0.959165
-4.23364 5.06404 358.246 0.0941017 0.203593 -0.974523
-3.93435 5.09765 358.292 -0.0269461 0.314591 -0.948845
-3.73012 5.12037 358.251 0.0534646 0.345348 -0.93695
-3.42644 5.15598 358.3 0.119874 0.211404 -0.97002
-3.15933 5.18526 358.316 0.113143 0.164477 -0.979871
-2.82013 5.22437 358.396 0.143317 0.158651 -0.976878
-2.54633 5.25531 358.417 0.105007 0.0938903 -0.990029
-2.26367 5.28821 358.446 0.0435104 0.0793058 -0.9959
-1.98967 5.31871 358.467 0.0973858 0.175673 -0.97962
-1.66026 5.3565 358.537 0.10119 0.220867 -0.97004
-1.42071 5.38345 358.526 0.0574873 0.144995 -0.987761
-1.09663 5.41848 358.591 0.0840443 0.151454 -0.984885
-0.835377 5.44913 358.599 0.0895866 0.179459 -0.979678
-0.55017 5.48263 358.629 0.117486 0.166141 -0.979078
-0.233772 5.51885 358.686 0.147974 0.20499 -0.967514
0.103879 5.55822 358.762 0.147931 0.223393 -0.963438
0.405655 5.59207 358.805 0.0803924 0.200166 -0.976458
0.683617 5.62365 358.826 0.0226668 0.211506 -0.977114
0.909476 5.64894 358.801 -0.00508829 0.225819 -0.974156
1.18462 5.67944 358.82 0.0798839 0.210645 -0.974293
1.49421 5.71556 358.869 0.1504 0.145945 -0.977794
1.82546 5.75356 358.937 0.0875869 0.123094 -0.988522
2.08409 5.7842 358.94 0.088352 0.203271 -0.975128
2.40135 5.81835 358.995 0.100611 0.194423 -0.975744
2.7046 5.85381 359.037 0.0808243 0.188673 -0.978708
2.9801 5.88428 359.054 0.0699182 0.188062 -0.979665
3.23211 5.91342 359.05 0.0785701 0.135052 -0.987718
3.5554 5.95045 359.109 0.130956 0.120883 -0.983991
3.87817 5.9874 359.167 0.0973351 0.195444 -0.975873
4.16251 6.01982 359.191 0.103204 0.203656 -0.973588
4.48993 6.05843 359.253 0.0739283 0.193516 -0.978308
4.71581 6.08253 359.224 0.0661162 0.234044 -0.969975
5.04609 6.11967 359.288 0.0726756 0.164472 -0.983701
5.29723 6.14852 359.281 0.00648021 0.16077 -0.986971
5.57096 6.1794 359.294 0.064033 0.269299 -0.960925
5.90748 6.21834 359.362 0.0788343 0.299404 -0.950864
6.1725 6.24834 359.367 0.080882 0.261197 -0.961891
6.49735 6.28449 359.424 0.0702997 0.187064 -0.979829
6.74411 6.31331 359.412 0.105528 0.153969 -0.982424
7.08128 6.35198 359.48 0.136296 0.17438 -0.9752
7.4499 6.39443 359.574 0.0567471 0.24339 -0.968267
7.67883 6.42007 359.546 0.0522429 0.289752 -0.955675
7.99541 6.45626 359.594 0.0662896 0.302007 -0.950998
8.28386 6.48906 359.617 0.0244267 0.295332 -0.955082
8.55831 6.52017 359.628 0.111371 0.259175 -0.959388
8.91022 6.5606 359.706 0.102451 0.252391 -0.962186
9.14907 6.58742 359.686 0.117116 0.204646 -0.971804
9.53784 6.63135 359.795 0.158978 0.173831 -0.971858
9.82927 6.66543 359.819 0.0759468 0.193689 -0.978119
10.1352 6.70033 359.856 0.131891 0.238933 -0.962037
10.4722 6.73974 359.92 0.093529 0.195059 -0.976322
10.7468 6.77007 359.928 0.0664882 0.26009 -0.963293
11.0918 6.80965 359.998 0.131088 0.325774 -0.936316
11.4217 6.84741 360.054 0.162625 0.285915 -0.944355
11.7911 6.88992 360.144 0.118642 0.25808 -0.958811
12.0906 6.92403 360.173 0.085243 0.277555 -0.956921
12.4099 6.96051 360.219 0.0650952 0.287449 -0.955581
12.6468 6.98695 360.194 0.153956 0.274374 -0.949219
13.0861 7.03799 360.343 0.203228 0.251127 -0.946379
13.4338 7.07788 360.412 0.125516 0.223173 -0.966664
13.7448 7.11336 360.449 0.0732854 0.214542 -0.973962
14.0126 7.14365 360.449 0.0956637 0.171961 -0.980448
14.3851 7.1865 360.539 0.131402 0.227671 -0.964831
14.6694 7.21829 360.553 0.0839506 0.205423 -0.975066
14.9898 7.25537 360.597 0.0659406 0.207019 -0.976112
15.2885 7.28995 360.618 -0.0123331 0.273494 -0.961795
-29.2279 2.63083 382.512 -0.884628 0.215154 -0.413693
-29.1542 2.63773 382.344 -0.906571 0.107576 -0.408113
-29.0651 2.64541 382.193 -0.877566 0.102333 -0.468408
-28.9749 2.65494 382.042 -0.835141 0.110372 -0.538849
-28.8803 2.66432 381.899 -0.839333 0.115068 -0.531299
-28.7863 2.67348 381.754 -0.83548 0.139742 -0.531456
-28.701 2.68153 381.599 -0.830438 0.0990808 -0.54823
-28.5963 2.69199 381.466 -0.831285 0.0745665 -0.550822
-28.4938 2.70223 381.331 -0.824794 0.105697 -0.555466
-28.4008 2.71135 381.184 -0.824093 0.159019 -0.543676
-28.3089 2.72098 381.039 -0.813767 0.158141 -0.559262
-28.2115 2.73121 380.895 -0.80924 0.151842 -0.567517
-28.1102 2.7396 380.76 -0.800786 0.111034 -0.588569
-27.9913 2.75184 380.64 -0.799845 0.0824573 -0.594516
-27.8945 2.76132 380.498 -0.808859 0.138848 -0.571374
-27.8012 2.7711 380.353 -0.811503 0.155728 -0.563215
-27.7079 2.78034 380.211 -0.814302 0.159831 -0.558002
-27.616 2.78942 380.063 -0.80202 0.173145 -0.571651
-27.5037 2.80072 379.938 -0.830514 0.13734 -0.5398
-27.4158 2.80919 379.787 -0.835946 0.132902 -0.532477
-27.3243 2.81811 379.64 -0.809798 0.132652 -0.571516
-27.2256 2.82773 379.502 -0.799924 0.0772904 -0.595103
-27.1176 2.83888 379.372 -0.803311 0.052845 -0.593211
-27.0194 2.84822 379.231 -0.811228 0.0414052 -0.583262
-26.9194 2.85785 379.094 -0.837056 0.0246761 -0.546561
-26.8294 2.8669 378.946 -0.818876 0.0167506 -0.573725
-26.721 2.87781 378.817 -0.807147 0.0282599 -0.589674
-26.6239 2.88801 378.675 -0.816878 0.0794541 -0.571312
-26.5349 2.89695 378.531 -0.76369 0.126776 -0.633013
-17.4634 3.74631 359.481 -0.283639 0.238864 -0.928705
-17.3193 3.76193 359.395 -0.445872 0.109852 -0.88833
-17.1397 3.78221 359.339 -0.417059 0.123225 -0.900487
-17.0073 3.79632 359.241 -0.416255 0.0967907 -0.904081
-16.8238 3.81619 359.187 -0.463313 0.124853 -0.877356
-16.689 3.83016 359.092 -0.631542 0.160253 -0.7586
-9.14399 4.67294 357.827 0.0191699 0.151764 -0.988231
-8.92425 4.69762 357.805 0.0208943 0.222589 -0.974688
-8.63651 4.73053 357.845 0.0969145 0.174745 -0.979833
-8.35483 4.76273 357.879 0.0944713 0.108417 -0.989606
-8.0694 4.79605 357.916 0.00695339 0.141095 -0.989972
-7.85231 4.81972 357.89 -0.0469958 0.135849 -0.989614
-7.59619 4.8482 357.9 0.0719891 0.183683 -0.980346
-7.31053 4.88145 357.937 0.0790555 0.180774 -0.980342
-7.04499 4.91121 357.955 0.0488279 0.166612 -0.984813
-6.76638 4.94348 357.985 0.0186813 0.219923 -0.975338
-6.49831 4.97401 358.004 0.0342889 0.241096 -0.969895
-6.24153 5.00277 358.013 0.126438 0.196821 -0.972252
-5.91373 5.04091 358.087 0.130193 0.178451 -0.975297
-5.63503 5.0718 358.116 0.0765121 0.177603 -0.981123
-5.36431 5.10357 358.137 0.0765073 0.149504 -0.985797
-5.07515 5.13665 358.175 0.106282 0.221662 -0.969314
-4.77638 5.17088 358.221 0.0778165 0.263554 -0.961501
-4.53047 5.1987 358.218 0.0857408 0.2287 -0.969714
-4.22432 5.23325 358.271 0.14438 0.197144 -0.969685
-3.89361 5.27193 358.345 0.0314021 0.182207 -0.982759
-3.66892 5.29758 358.322 -0.0213974 0.205332 -0.978458
-3.401 5.32667 358.339 0.0831228 0.264893 -0.960688
-3.09126 5.36322 358.393 0.0978231 0.262601 -0.959933
-2.83483 5.39229 358.399 0.104361 0.165827 -0.980617
-2.54118 5.42643 358.438 0.0949867 0.107879 -0.989616
-2.25213 5.45789 358.472 0.0971449 0.150455 -0.983832
-1.94606 5.49406 358.522 0.123699 0.184911 -0.974939
-1.6527 5.52762 358.56 0.0553771 0.184833 -0.981209
-1.41356 5.55462 358.549 0.0622583 0.149116 -0.986858
-1.11035 5.58936 358.595 0.102702 0.139811 -0.984838
-0.834431 5.6208 358.616 0.081778 0.192338 -0.977915
-0.511795 5.65791 358.679 0.138943 0.195345 -0.970843
-0.195722 5.6942 358.736 0.15349 0.236857 -0.959343
0.114676 5.7292 358.787 0.126301 0.237349 -0.963179
0.397122 5.76204 358.813 0.0911897 0.130231 -0.987281
0.688028 5.79529 358.846 0.0414559 0.112314 -0.992808
0.975397 5.82842 358.876 -0.00265559 0.188836 -0.982005
1.22599 5.85648 358.872 0.03044 0.304986 -0.95187
1.4929 5.88682 358.883 0.119681 0.25789 -0.958733
1.81986 5.92442 358.948 0.134214 0.122029 -0.98341
2.13091 5.95866 358.997 0.0903074 0.154508 -0.983856
2.40917 5.9918 359.017 0.0948932 0.194878 -0.976226
2.69287 6.02407 359.042 0.0801299 0.182894 -0.979862
2.989 6.05804 359.078 0.0271528 0.260211 -0.96517
3.26379 6.08932 359.094 0.0562749 0.252106 -0.966062
3.55361 6.12243 359.123 0.160523 0.177483 -0.970944
3.91895 6.16523 359.219 0.104635 0.18435 -0.977275
4.15008 6.19057 359.196 0.0941379 0.208245 -0.973536
4.50037 6.23046 359.278 0.104158 0.149051 -0.983328
4.7943 6.26518 359.309 0.0272446 0.179745 -0.983336
5.0355 6.29187 359.294 0.0569504 0.239463 -0.969234
5.35895 6.32902 359.351 0.0716427 0.257204 -0.963698
5.68545 6.36654 359.411 0.0779476 0.324723 -0.942592
5.95199 6.39682 359.417 0.0594569 0.261721 -0.96331
6.24403 6.4311 359.446 0.0354243 0.233314 -0.971756
6.48114 6.45688 359.426 0.0435439 0.251579 -0.966857
6.80801 6.49444 359.484 0.105386 0.254512 -0.96131
7.1362 6.53216 359.544 0.149519 0.273338 -0.950227
7.43371 6.5663 359.576 0.0982021 0.151883 -0.983508
7.74449 6.60177 359.619 0.0861278 0.116737 -0.989421
8.0694 6.63909 359.675 0.0584247 0.276097 -0.959352
8.3117 6.66642 359.657 0.0115735 0.312394 -0.949882
8.61749 6.70142 359.696 0.107201 0.250815 -0.962081
8.93683 6.73806 359.745 0.082236 0.196082 -0.977133
9.22406 6.77082 359.767 0.0983651 0.233459 -0.967379
9.5441 6.80868 359.816 0.151745 0.243383 -0.957986
9.88616 6.84691 359.885 0.113222 0.176705 -0.97773
10.1976 6.88258 359.926 0.107546 0.203262 -0.9732
10.4922 6.91541 359.953 0.125514 0.214123 -0.968709
10.8723 6.96053 360.053 0.121751 0.26515 -0.95649
11.1678 6.99393 360.08 0.121501 0.273955 -0.954037
11.4973 7.03196 360.135 0.151194 0.216614 -0.964478
11.8129 7.06794 360.179 0.136673 0.177485 -0.974587
12.1338 7.10474 360.226 0.106487 0.145832 -0.983562
12.4382 7.13955 360.259 0.0943687 0.1379 -0.98594
12.801 7.18141 360.342 0.145712 0.297709 -0.943471
13.1311 7.21932 360.397 0.163839 0.341936 -0.92533
13.4471 7.25552 360.439 0.107831 0.27081 -0.956574
13.7587 7.2912 360.477 0.0382145 0.29008 -0.956239
14.0408 7.32331 360.489 0.118892 0.262095 -0.95769
14.4276 7.36813 360.591 0.116475 0.209788 -0.970784
14.6748 7.39595 360.573 0.0806971 0.220597 -0.972021
15.0539 7.43976 360.667 0.0819546 0.304999 -0.94882
15.3187 7.46978 360.663 -0.0554322 0.262151 -0.963434
-29.1886 2.8047 382.575 -0.934442 0.129634 -0.331683
-29.1334 2.80813 382.383 -0.896717 0.218656 -0.384821
-29.0562 2.81618 382.222 -0.865765 0.209051 -0.454696
-28.9767 2.8238 382.061 -0.828213 0.15734 -0.537874
-28.8601 2.83466 381.94 -0.824789 0.130687 -0.550131
-28.78 2.84305 381.78 -0.861814 0.0635943 -0.503221
-28.6844 2.85244 381.637 -0.844525 0.0780882 -0.529792
-28.5987 2.86025 381.481 -0.81171 0.12642 -0.570215
-28.4943 2.8709 381.349 -0.791897 0.113804 -0.599957
-28.3806 2.8825 381.226 -0.828775 0.124653 -0.545522
-28.2975 2.89058 381.069 -0.816954 0.168088 -0.551663
-28.1784 2.90118 380.946 -0.832897 0.15435 -0.531468
-28.1204 2.90752 380.77 -0.81737 0.122733 -0.562889
-28.0083 2.91912 380.643 -0.761581 0.114879 -0.637806
-27.8977 2.93054 380.516 -0.80008 0.112616 -0.589228
-27.7911 2.9411 380.385 -0.81146 0.125923 -0.570681
-27.6888 2.95132 380.249 -0.81008 0.133771 -0.570855
-27.5797 2.96244 380.121 -0.823002 0.142942 -0.549759
-27.5063 2.96877 379.953 -0.833515 0.122909 -0.538652
-27.402 2.9796 379.821 -0.839532 0.122697 -0.529274
-27.3135 2.98762 379.67 -0.83634 0.177787 -0.518582
-27.2222 2.99662 379.523 -0.807451 0.17274 -0.564078
-27.1244 3.00667 379.384 -0.809345 0.0639753 -0.583838
-27.0279 3.01618 379.242 -0.818428 0.0226778 -0.574162
-26.93 3.02623 379.103 -0.842662 0.0256788 -0.53783
-26.847 3.03448 378.948 -0.813555 0.053531 -0.579018
-26.7308 3.0457 378.826 -0.774365 0.0708679 -0.628758
-26.624 3.05661 378.696 -0.793551 0.0412947 -0.607101
-26.506 3.06862 378.578 -0.787222 0.122312 -0.604418
-17.6193 3.89464 359.576 -0.650178 -0.364377 -0.666707
-17.4575 3.91232 359.504 -0.392032 0.15229 -0.907259
-17.3196 3.92691 359.41 -0.431059 0.0350388 -0.901643
-17.1495 3.9457 359.346 -0.433093 0.00356881 -0.901342
-17.002 3.96093 359.262 -0.39155 0.11267 -0.913233
-16.8045 3.98394 359.224 -0.428135 0.181189 -0.885365
-16.6803 3.99687 359.116 -0.69117 0.127543 -0.711349
-8.62126 4.90001 357.875 0.0506781 0.205286 -0.977389
-8.34191 4.93202 357.907 0.104063 0.16154 -0.981364
-8.05596 4.96413 357.945 0.00955847 0.0741559 -0.997201
-7.84472 4.98853 357.913 -0.006706 0.159862 -0.987117
-7.53553 5.02417 357.972 0.0616513 0.252278 -0.965689
-7.29275 5.05172 357.969 0.0674845 0.187222 -0.979997
-6.9956 5.08589 358.016 0.0798771 0.169133 -0.982351
-6.7307 5.11613 358.033 0.037359 0.203821 -0.978295
-6.48509 5.14464 358.032 0.0197362 0.187734 -0.982022
-6.22158 5.17408 358.048 0.112535 0.221011 -0.968757
-5.90043 5.21116 358.115 0.11735 0.238965 -0.963911
-5.64514 5.24022 358.123 0.0604449 0.162415 -0.984869
-5.36458 5.27237 358.153 0.124793 0.138089 -0.982526
-5.02936 5.31179 358.232 0.133675 0.18147 -0.974269
-4.75147 5.343 358.259 0.0679219 0.171778 -0.982791
-4.47294 5.37517 358.287 0.0797249 0.168521 -0.982469
-4.18532 5.40799 358.322 0.130098 0.182461 -0.974568
-3.90996 5.43974 358.346 0.0517709 0.109523 -0.992635
-3.66745 5.46642 358.34 0.0507821 0.0872377 -0.994892
-3.33263 5.50556 358.417 0.0973802 0.168798 -0.980829
-3.09493 5.53247 358.406 0.0455156 0.177653 -0.98304
-2.81839 5.5641 358.429 0.0618381 0.217013 -0.974208
-2.53449 5.59609 358.46 0.0945846 0.289851 -0.952386
-2.22379 5.63241 358.514 0.104602 0.256501 -0.960867
-1.94229 5.66465 358.541 0.111631 0.231357 -0.966443
-1.62856 5.70136 358.597 0.028727 0.213896 -0.976434
-1.40382 5.72612 358.573 0.0534367 0.189141 -0.980495
-1.07018 5.76469 358.647 0.119821 0.225271 -0.9669
-0.771746 5.79898 358.688 0.0729485 0.30811 -0.94855
-0.512224 5.82852 358.694 0.153043 0.266485 -0.951611
-0.122937 5.87386 358.817 0.154087 0.211151 -0.965232
0.135733 5.9033 358.822 0.0618211 0.211247 -0.975476
0.408195 5.93442 358.839 0.0740701 0.171858 -0.982333
0.698269 5.96768 358.871 0.0720664 0.218853 -0.973093
0.973252 5.99878 358.89 0.0721057 0.246957 -0.96634
1.31089 6.03814 358.964 0.0183504 0.253652 -0.967122
1.53308 6.06314 358.935 0.0351551 0.243259 -0.969324
1.81675 6.09662 358.961 0.143419 0.166988 -0.975472
2.15037 6.13417 359.03 0.118696 0.12127 -0.985497
2.43149 6.16631 359.053 0.0852335 0.202912 -0.97548
2.75777 6.20396 359.116 0.109125 0.25872 -0.959768
3.07501 6.24072 359.17 0.0264091 0.257212 -0.965994
3.28368 6.26385 359.127 0.0169082 0.247338 -0.968782
3.59389 6.29954 359.175 0.148251 0.253575 -0.955888
3.92828 6.33758 359.243 0.102455 0.287845 -0.952181
4.22306 6.37197 359.276 0.0434327 0.311337 -0.949306
4.4841 6.40168 359.279 0.094633 0.299632 -0.94935
4.79759 6.4373 359.328 0.0706521 0.169204 -0.983045
5.10059 6.47329 359.367 0.080662 0.164226 -0.983119
5.40024 6.50696 359.403 0.117653 0.243579 -0.962719
5.69999 6.54136 359.439 0.0461244 0.221271 -0.974121
5.93803 6.56826 359.42 0.0411997 0.236823 -0.970679
6.26893 6.6055 359.483 0.042187 0.279775 -0.959138
6.54734 6.63825 359.499 0.0415641 0.344297 -0.93794
6.85841 6.67402 359.544 0.119785 0.285485 -0.950868
7.16676 6.70946 359.586 0.0785384 0.2371 -0.968305
7.42325 6.73751 359.582 0.070198 0.203538 -0.976547
7.73058 6.77391 359.622 0.165909 0.154383 -0.973982
8.12026 6.81948 359.735 0.0854882 0.197099 -0.976649
8.36134 6.84649 359.716 -0.00877899 0.240511 -0.970607
8.6437 6.87876 359.734 0.0763258 0.212075 -0.974268
8.92634 6.91217 359.752 0.11369 0.143649 -0.983077
9.27608 6.95152 359.828 0.115817 0.208026 -0.971242
9.57906 6.9851 359.862 0.103893 0.283743 -0.953256
9.87506 7.02021 359.891 0.124096 0.202053 -0.971481
10.2033 7.05805 359.947 0.12448 0.142743 -0.981901
10.5333 7.0961 360.004 0.15399 0.211016 -0.965277
10.8713 7.13475 360.068 0.139499 0.179922 -0.973739
11.1639 7.16861 360.092 0.111629 0.121872 -0.986249
11.4888 7.20584 360.144 0.141707 0.118302 -0.982814
11.8169 7.24384 360.198 0.125267 0.116799 -0.985224
12.1214 7.27879 360.231 0.0991804 0.162026 -0.98179
12.427 7.31386 360.265 0.18714 0.162988 -0.968717
12.8678 7.36572 360.416 0.194669 0.180918 -0.96404
13.1739 7.40048 360.45 0.128573 0.240728 -0.962039
13.5377 7.4426 360.533 0.108155 0.272205 -0.956142
13.834 7.47654 360.557 0.0345939 0.281344 -0.958983
14.1094 7.50793 360.564 0.0882535 0.254476 -0.963044
14.4148 7.54289 360.596 0.114729 0.236717 -0.964781
14.7711 7.58424 360.671 0.129281 0.232673 -0.963924
15.1135 7.62371 360.734 0.0453282 0.239573 -0.96982
-29.2751 2.96601 382.748 -0.850618 0.108474 -0.514473
-29.1907 2.9745 382.592 -0.911386 -0.0283563 -0.410575
-29.0995 2.98232 382.443 -0.923406 0.0679618 -0.377761
-29.0404 2.98733 382.259 -0.901925 0.145124 -0.40678
-28.953 2.99443 382.103 -0.838527 0.19419 -0.50908
-28.8691 3.00333 381.95 -0.857885 0.11807 -0.500093
-28.7956 3.01118 381.786 -0.855926 0.0690692 -0.512465
-28.6842 3.02109 381.655 -0.815625 0.157766 -0.556656
-28.5832 3.03118 381.518 -0.817497 0.164562 -0.551922
-28.485 3.04111 381.378 -0.779621 0.131349 -0.612322
-28.3797 3.05205 381.247 -0.806372 0.0883716 -0.584769
-28.2792 3.06216 381.109 -0.827771 0.110771 -0.550022
-28.1963 3.06991 380.952 -0.854195 0.117082 -0.5066
-28.0976 3.07911 380.811 -0.825584 0.146687 -0.54488
-27.9844 3.08994 380.688 -0.754669 0.175717 -0.632138
-27.8802 3.10085 380.552 -0.789221 0.133001 -0.599534
-27.7874 3.11027 380.41 -0.803864 0.166541 -0.571023
-27.69 3.1205 380.269 -0.798226 0.18502 -0.573239
-27.5947 3.12981 380.124 -0.836438 0.0950744 -0.539753
-27.4948 3.13921 379.986 -0.836241 0.0268131 -0.547707
-27.3945 3.14957 379.849 -0.809847 0.0485631 -0.584628
-27.2874 3.16019 379.719 -0.850233 0.0871101 -0.519149
-27.2099 3.16754 379.557 -0.867515 0.140439 -0.477174
-27.1346 3.17456 379.393 -0.828023 0.134971 -0.544206
-27.0228 3.18543 379.266 -0.81227 0.117576 -0.571309
-26.9327 3.19408 379.118 -0.827957 0.108363 -0.550222
-26.8213 3.20533 378.992 -0.801955 0.149699 -0.578324
-26.7286 3.21419 378.846 -0.785908 0.160815 -0.597066
-26.6294 3.22424 378.709 -0.740844 0.0921393 -0.665328
-26.5028 3.23768 378.599 -0.746076 0.0644418 -0.662735
-17.6354 4.0576 359.576 -0.310509 -0.0412999 -0.949673
-17.4741 4.076 359.504 -0.484591 0.0183095 -0.874549
-17.3359 4.09085 359.411 -0.45965 0.0605163 -0.886036
-17.1655 4.10935 359.347 -0.353628 0.165161 -0.920689
-16.9693 4.131 359.309 -0.335396 0.204776 -0.919552
-16.8123 4.14868 359.232 -0.461893 0.138423 -0.876068
-16.673 4.16303 359.14 -0.596342 0.152037 -0.788201
-8.102 5.12785 357.918 0.0642909 0.0664568 -0.995716
-7.77006 5.16571 357.998 0.0675157 0.129115 -0.989329
-7.54272 5.19134 357.981 0.0307574 0.146026 -0.988803
-7.28559 5.22073 357.992 0.0658175 0.114178 -0.991278
-7.0059 5.25288 358.023 0.100518 0.148945 -0.983723
-6.7157 5.28631 358.063 0.0359387 0.114361 -0.992789
-6.47449 5.31309 358.058 0.0577044 0.152016 -0.986692
-6.14868 5.35153 358.13 0.118259 0.260495 -0.958205
-5.8708 5.38345 358.158 0.0575519 0.294702 -0.953854
-5.62046 5.41199 358.161 0.0410579 0.213837 -0.976006
-5.33791 5.44448 358.193 0.142647 0.192021 -0.970968
-5.01883 5.4808 358.258 0.120786 0.200543 -0.972211
-4.76622 5.51022 358.262 0.0605852 0.216419 -0.974419
-4.47569 5.54339 358.3 0.0899044 0.188874 -0.977877
-4.19513 5.57579 358.329 0.0864334 0.168471 -0.98191
-3.90929 5.60776 358.362 0.0281251 0.185549 -0.982232
-3.6578 5.6375 358.364 0.0914474 0.180416 -0.97933
-3.34426 5.67377 358.422 0.0977515 0.18044 -0.978716
-3.07709 5.70436 358.438 0.0712498 0.188018 -0.979578
-2.74109 5.74338 358.515 0.112724 0.222726 -0.968342
-2.44855 5.77706 358.553 0.0773436 0.270571 -0.959588
-2.18978 5.80663 358.56 0.0859599 0.282174 -0.955504
-1.87692 5.8428 358.616 0.0884371 0.261978 -0.961013
-1.62052 5.87149 358.621 0.00934645 0.250209 -0.968147
-1.36303 5.90145 358.626 0.0670204 0.312597 -0.947519
-1.03319 5.9397 358.696 0.140993 0.340189 -0.929727
-0.709615 5.97718 358.76 0.0615044 0.294502 -0.95367
-0.454997 6.00622 358.762 0.122819 0.251564 -0.960016
-0.131177 6.04442 358.825 0.150385 0.176903 -0.972672
0.155618 6.07669 358.855 0.0482127 0.117587 -0.991892
0.427092 6.10779 358.871 0.107051 0.139115 -0.984473
0.772428 6.14792 358.953 0.094621 0.183608 -0.978435
1.0327 6.17764 358.959 0.0648548 0.279222 -0.958034
1.30704 6.2094 358.976 0.0204783 0.195193 -0.980551
1.54393 6.23593 358.96 0.00781807 0.102634 -0.994689
1.84382 6.26945 359 0.108855 0.219918 -0.969426
2.13542 6.30402 359.033 0.140962 0.257526 -0.955934
2.50761 6.34744 359.137 0.117835 0.235735 -0.964647
2.75907 6.37608 359.133 0.101988 0.227907 -0.968327
3.06775 6.41149 359.179 0.0240405 0.211967 -0.976981
3.31932 6.44035 359.175 0.0511369 0.186912 -0.981045
3.66917 6.48101 359.257 0.168975 0.197918 -0.965544
3.99904 6.51922 359.322 0.111164 0.258319 -0.959642
4.27389 6.55071 359.337 0.0534091 0.252711 -0.966067
4.58431 6.58671 359.383 0.0108979 0.251941 -0.967681
4.78122 6.60849 359.329 0.0620682 0.214933 -0.974655
5.11578 6.64652 359.396 0.131435 0.170386 -0.976572
5.43217 6.68382 359.447 0.104053 0.190197 -0.976216
5.72933 6.71802 359.481 0.0571262 0.210626 -0.975896
6.03951 6.75382 359.526 0.0630381 0.282276 -0.95726
6.33057 6.78785 359.553 0.0853583 0.274932 -0.957667
6.63709 6.82261 359.594 0.0253034 0.265031 -0.963908
6.85538 6.84717 359.557 0.0960989 0.204328 -0.974174
7.22883 6.89068 359.656 0.0617569 0.196265 -0.978604
7.44666 6.91518 359.618 0.0414125 0.239252 -0.970074
7.80129 6.95716 359.7 0.170779 0.223834 -0.959548
8.11471 6.99231 359.746 0.100918 0.200669 -0.974447
8.39509 7.0247 359.762 -0.0165652 0.218877 -0.975612
8.65003 7.05373 359.755 0.0212942 0.317414 -0.948048
8.95739 7.08803 359.794 0.126385 0.300503 -0.94537
9.32275 7.13166 359.884 0.143877 0.290921 -0.945867
9.64513 7.16909 359.935 0.0560928 0.27417 -0.960044
9.90045 7.198 359.928 0.0830067 0.246215 -0.965654
10.2378 7.23858 359.992 0.148376 0.252259 -0.956217
10.5857 7.27817 360.065 0.133608 0.223601 -0.96548
10.8746 7.3106 360.086 0.104036 0.190616 -0.976136
11.1982 7.348 360.137 0.0969605 0.222496 -0.9701
11.498 7.38248 360.167 0.120949 0.254549 -0.959467
11.8409 7.42223 360.234 0.131362 0.235015 -0.963074
12.1778 7.46124 360.295 0.0995476 0.216985 -0.971086
12.4803 7.49604 360.327 0.189 0.213865 -0.958405
12.8678 7.54084 360.431 0.217841 0.166616 -0.961657
13.2269 7.58293 360.511 0.156036 0.154961 -0.97552
13.5448 7.61962 360.554 0.120593 0.144833 -0.98208
13.8441 7.65404 360.582 0.0453115 0.11895 -0.991866
14.124 7.68607 360.592 0.0919489 0.175391 -0.980196
14.5004 7.72989 360.685 0.112717 0.247656 -0.962269
14.7575 7.75909 360.675 0.116539 0.274636 -0.95446
15.1152 7.80108 360.751 -0.0158335 0.185011 -0.982609
-29.2872 3.13207 382.752 -0.888183 -0.19719 -0.415027
-29.1964 3.14164 382.605 -0.85999 -0.104973 -0.499397
-29.1135 3.15032 382.447 -0.895152 -0.0122428 -0.445594
-29.0259 3.15788 382.292 -0.894584 0.0674044 -0.441787
-28.9399 3.16622 382.143 -0.884137 0.0982346 -0.456784
-28.8683 3.17295 381.972 -0.882628 0.106027 -0.457959
-28.7674 3.18299 381.833 -0.801177 0.193595 -0.566248
-28.6502 3.19318 381.709 -0.806676 0.199029 -0.556472
-28.5828 3.20037 381.538 -0.84557 0.0911688 -0.526023
-28.4817 3.21043 381.401 -0.806514 0.0580045 -0.588363
-28.3829 3.21996 381.261 -0.79072 0.0912498 -0.605339
-28.2722 3.23115 381.134 -0.822696 0.0743425 -0.563599
-28.1767 3.24077 380.992 -0.84173 0.104621 -0.529665
-28.0808 3.24928 380.846 -0.814555 0.156865 -0.558475
-27.9959 3.25827 380.694 -0.784469 0.104327 -0.61133
-27.8788 3.27043 380.575 -0.768139 0.0528626 -0.638098
-27.7611 3.28246 380.456 -0.798414 0.0821244 -0.596482
-27.6613 3.29254 380.318 -0.851013 0.121886 -0.510804
-27.5912 3.29759 380.146 -0.870164 0.0945585 -0.483605
-27.5114 3.30597 379.987 -0.826091 0.000989931 -0.563535
-27.4053 3.31656 379.856 -0.778932 -0.0325782 -0.626262
-27.2967 3.32766 379.727 -0.817043 -0.0257822 -0.576
-27.1966 3.3378 379.588 -0.880253 0.0226785 -0.473963
-27.1146 3.34535 379.432 -0.841895 0.0947284 -0.531263
-27.0116 3.35474 379.295 -0.817042 0.104552 -0.56702
-26.9231 3.36403 379.148 -0.805897 0.116502 -0.58048
-26.8118 3.37524 379.02 -0.80012 0.0946971 -0.592318
-26.7205 3.38423 378.876 -0.833334 0.109521 -0.541812
-26.6265 3.39331 378.731 -0.751703 0.202389 -0.627679
-26.5081 3.4056 378.613 -0.607715 0.205696 -0.767054
-17.6387 4.22254 359.589 -0.267458 0.144602 -0.952658
-17.4719 4.24005 359.522 -0.452614 0.049368 -0.890339
-17.3192 4.25662 359.443 -0.373259 0.103425 -0.921944
-8.08571 5.29601 357.949 0.0898091 0.169428 -0.981442
-7.78629 5.3316 357.999 0.0816756 0.0919594 -0.992407
-7.55307 5.35813 357.988 0.0103175 0.142437 -0.98975
-7.25866 5.3922 358.032 0.0688343 0.265745 -0.961583
-6.98171 5.42412 358.061 0.0594483 0.284867 -0.956722
-6.72842 5.45312 358.067 0.0526975 0.182496 -0.981793
-6.43953 5.4865 358.106 0.133621 0.146709 -0.980113
-6.10989 5.5249 358.182 0.138905 0.19896 -0.970113
-5.83502 5.55655 358.207 0.0109831 0.194024 -0.980935
-5.6108 5.58197 358.186 0.026642 0.290269 -0.956574
-5.3045 5.61761 358.239 0.137304 0.245919 -0.959516
-4.98992 5.65475 358.3 0.129528 0.163087 -0.978072
-4.68554 5.6893 358.351 0.0442408 0.219995 -0.974497
-4.45445 5.71555 358.335 0.0682015 0.251303 -0.965502
-4.13797 5.75258 358.397 0.0836906 0.234631 -0.968475
-3.88194 5.78163 358.403 0.0277149 0.201839 -0.979027
-3.61772 5.81196 358.416 0.0836694 0.238383 -0.96756
-3.30365 5.84842 358.475 0.0941105 0.223988 -0.970037
-3.04129 5.87852 358.486 0.100555 0.168702 -0.980524
-2.74988 5.91262 358.523 0.149573 0.128619 -0.980349
-2.44027 5.94809 358.577 0.110248 0.0942212 -0.989428
-2.14116 5.9827 358.62 0.0866989 0.185434 -0.978825
-1.86789 6.01413 358.64 0.080705 0.19439 -0.977599
-1.57199 6.04944 358.68 0.069807 0.199961 -0.977314
-1.25601 6.08502 358.738 0.1068 0.290272 -0.950966
-0.953619 6.12042 358.783 0.106319 0.292277 -0.950405
-0.703324 6.14862 358.781 0.0519634 0.22055 -0.97399
-0.423963 6.18109 358.805 0.0917861 0.157686 -0.983214
-0.126303 6.21468 358.845 0.12312 0.10784 -0.986515
0.160796 6.24833 358.876 0.069194 0.0797224 -0.994413
0.426831 6.27885 358.887 0.125535 0.181223 -0.975397
0.764127 6.31905 358.962 0.145769 0.1875 -0.971388
1.08032 6.35482 359.017 0.0167299 0.164374 -0.986256
1.29042 6.37846 358.977 -0.0355489 0.111842 -0.99309
1.56258 6.40974 358.993 0.0893206 0.132015 -0.987215
1.91011 6.45027 359.075 0.136015 0.221647 -0.965594
2.228 6.48716 359.131 0.123673 0.267796 -0.955505
2.49589 6.51801 359.142 0.118101 0.187859 -0.97507
2.82432 6.55608 359.206 0.0937749 0.161294 -0.982441
3.11146 6.58918 359.234 0.00396556 0.253979 -0.967202
3.33121 6.614 359.201 0.0619859 0.255848 -0.964728
3.66055 6.65265 359.265 0.196693 0.172414 -0.965187
4.02849 6.6956 359.363 0.121623 0.101468 -0.987376
4.27054 6.72287 359.35 0.0625845 0.137073 -0.988582
4.57538 6.75795 359.391 0.00320187 0.143475 -0.989649
4.81904 6.78589 359.378 0.0320678 0.261379 -0.964703
5.15867 6.82627 359.45 0.124344 0.274766 -0.953437
5.43798 6.85755 359.468 0.112142 0.186941 -0.975949
5.77103 6.89627 359.533 0.108705 0.169575 -0.979504
6.04863 6.92818 359.549 0.0749863 0.185722 -0.979737
6.33864 6.96102 359.576 0.0774983 0.224244 -0.971447
6.63386 6.99568 359.607 8.72746e-006 0.18876 -0.982023
6.88188 7.02396 359.596 0.0938549 0.161479 -0.982403
7.24036 7.0658 359.682 0.0893426 0.171926 -0.98105
7.48529 7.09369 359.668 0.0604948 0.158663 -0.985478
7.81732 7.13149 359.73 0.153495 0.209873 -0.965605
8.14131 7.16986 359.784 0.0982284 0.217361 -0.971136
8.44876 7.20559 359.824 0.0611793 0.190065 -0.979863
8.76807 7.24258 359.873 0.0405572 0.253876 -0.966386
9.02978 7.27267 359.873 0.131473 0.254439 -0.95811
9.39515 7.31505 359.963 0.128801 0.240846 -0.961979
9.63619 7.34228 359.943 0.0493165 0.215352 -0.97529
9.9717 7.38144 360.006 0.103537 0.203834 -0.973515
10.2848 7.41615 360.049 0.131393 0.243477 -0.960965
10.5932 7.45276 360.087 0.121549 0.153619 -0.980626
10.9125 7.49035 360.135 0.129052 0.137757 -0.982023
11.2558 7.5303 360.203 0.108947 0.292541 -0.950027
11.5716 7.56686 360.246 0.0958429 0.348274 -0.93248
11.8899 7.60372 360.292 0.109135 0.288023 -0.951384
12.1771 7.63678 360.31 0.0988029 0.291 -0.951608
12.519 7.67654 360.376 0.150577 0.31351 -0.93757
12.8724 7.7177 360.451 0.195762 0.245516 -0.94942
13.2418 7.76083 360.539 0.141045 0.207473 -0.968019
13.5277 7.79423 360.555 0.102536 0.152081 -0.983035
13.8719 7.83375 360.621 0.0765481 0.168032 -0.982805
14.1575 7.86659 360.636 0.118536 0.291914 -0.949071
14.5348 7.91068 360.73 0.130303 0.240594 -0.96184
14.8521 7.9474 360.771 0.0606253 0.201882 -0.977532
15.1156 7.97711 360.767 -0.101647 0.226533 -0.968685
-29.1082 3.31875 382.473 -0.858343 0.0533987 -0.510291
-29.0226 3.32775 382.314 -0.882166 0.0549641 -0.467721
-28.9489 3.33414 382.153 -0.881389 0.0843809 -0.464794
-28.8484 3.34366 382.01 -0.842507 0.166674 -0.512252
-28.752 3.35302 381.867 -0.80024 0.162177 -0.577333
-28.6607 3.36214 381.722 -0.872297 0.0567771 -0.485668
-28.5928 3.36948 381.548 -0.865899 0.0885741 -0.492314
-28.4803 3.37952 381.422 -0.784802 0.132633 -0.605388
-28.3736 3.39025 381.291 -0.798189 0.0908954 -0.59551
-28.2798 3.39938 381.146 -0.802079 0.0975559 -0.589196
-28.1736 3.41044 381.014 -0.81558 0.0857807 -0.572251
-28.0741 3.41983 380.873 -0.851385 0.0846498 -0.517666
-27.9913 3.428 380.72 -0.814259 0.138587 -0.563717
-27.8835 3.43882 380.588 -0.742656 0.151378 -0.65234
-27.7774 3.44918 380.458 -0.766921 0.0538927 -0.639474
-27.6681 3.46049 380.329 -0.865511 -0.0178016 -0.500573
-27.5967 3.46656 380.16 -0.913925 0.0178712 -0.40549
-27.5219 3.473 379.994 -0.8455 0.0949655 -0.525463
-27.414 3.48393 379.864 -0.773506 0.105944 -0.624871
-27.3092 3.49442 379.732 -0.783855 0.0158934 -0.62074
-27.2022 3.50512 379.602 -0.845914 -0.0403553 -0.53179
-27.1247 3.51241 379.44 -0.839708 -0.00908624 -0.542962
-27.0128 3.524 379.315 -0.812958 0.030218 -0.581538
-26.9187 3.53353 379.172 -0.821281 0.0756899 -0.56548
-26.8226 3.54255 379.029 -0.786727 0.109536 -0.607505
-26.7047 3.55478 378.911 -0.784112 0.117963 -0.609305
-26.5906 3.56663 378.79 -0.764927 0.15206 -0.625911
-17.6433 4.38715 359.601 -0.336999 0.0808439 -0.938028
-17.4847 4.4054 359.525 -0.412909 0.111115 -0.903969
-7.8022 5.49704 358 0.0892534 0.244967 -0.965414
-7.47358 5.53606 358.077 0.0864429 0.230504 -0.969224
-7.20473 5.56708 358.098 0.0810017 0.259679 -0.962292
-6.92014 5.60005 358.133 -0.00823381 0.240213 -0.970685
-6.72827 5.62153 358.083 0.0256678 0.244671 -0.969266
-6.41288 5.65831 358.146 0.152962 0.218857 -0.963693
-6.11027 5.6935 358.197 0.128058 0.187875 -0.973809
-5.82975 5.72595 358.228 0.076466 0.203763 -0.976029
-5.49518 5.76513 358.307 0.0136585 0.28056 -0.959739
-5.31499 5.78499 358.246 0.0782634 0.298564 -0.951175
-4.97704 5.82393 358.328 0.14762 0.208407 -0.966838
-4.70161 5.857 358.353 0.0828722 0.107577 -0.990737
-4.40071 5.89146 358.4 0.0750516 0.12824 -0.988899
-4.14332 5.92077 358.408 0.0669417 0.161239 -0.984642
-3.87174 5.95237 358.428 0.0592069 0.201551 -0.977687
-3.5642 5.98815 358.481 0.0751227 0.243081 -0.967093
-3.31861 6.01627 358.477 0.062495 0.199259 -0.977952
-3.03439 6.04916 358.508 0.0831943 0.127429 -0.988353
-2.74875 6.08178 358.54 0.128985 0.134699 -0.982456
-2.43895 6.11828 358.594 0.151396 0.153964 -0.976409
-2.11657 6.15589 358.658 0.0995133 0.126681 -0.986939
-1.85957 6.1854 358.663 0.093393 0.11582 -0.98887
-1.54352 6.22109 358.722 0.140385 0.140839 -0.980029
-1.24776 6.25652 358.761 0.128878 0.150692 -0.980144
-0.953719 6.29021 358.799 0.0753549 0.127929 -0.988916
-0.67765 6.32248 358.82 0.0102316 0.235373 -0.971851
-0.428003 6.35078 358.817 0.044137 0.287614 -0.956729
-0.142971 6.38406 358.846 0.0941977 0.201052 -0.975041
0.157471 6.42055 358.889 0.120443 0.169362 -0.978167
0.511465 6.46043 358.979 0.118792 0.261525 -0.957859
0.783671 6.4909 358.995 0.120823 0.220971 -0.967767
1.08114 6.5263 359.034 -0.0156234 0.128023 -0.991648
1.27403 6.5472 358.978 -0.0240772 0.177189 -0.983882
1.61337 6.58756 359.054 0.131833 0.233945 -0.96327
1.90559 6.62198 359.087 0.165349 0.189836 -0.967792
2.25224 6.66197 359.168 0.0954704 0.102594 -0.990131
2.48389 6.68822 359.147 0.102884 0.172017 -0.979707
2.8473 6.73096 359.243 0.130177 0.212918 -0.968359
3.11792 6.76246 359.255 0.0253403 0.159385 -0.986891
3.42066 6.79727 359.296 0.0245089 0.217414 -0.975772
3.65872 6.82405 359.279 0.150646 0.223678 -0.96295
4.02032 6.8666 359.372 0.140453 0.0916117 -0.98584
4.29365 6.89831 359.386 0.0708693 0.0830123 -0.994025
4.60778 6.93485 359.435 0.0794158 0.167658 -0.982641
4.90975 6.96987 359.474 0.061615 0.231892 -0.970788
5.17728 6.99978 359.482 0.0734817 0.238257 -0.968418
5.4645 7.03385 359.507 0.100035 0.197246 -0.975237
5.77332 7.06973 359.551 0.115269 0.170558 -0.978582
6.08346 7.10576 359.596 0.0991104 0.182969 -0.97811
6.41248 7.14411 359.657 0.0463995 0.243565 -0.968774
6.63763 7.16965 359.626 -0.0143887 0.209961 -0.977604
6.9224 7.20254 359.647 0.0991309 0.166078 -0.981117
7.23913 7.23938 359.696 0.0738465 0.214394 -0.973952
7.49843 7.26913 359.695 0.089664 0.252624 -0.963401
7.87752 7.31365 359.798 0.144844 0.253932 -0.956315
8.16323 7.34665 359.819 0.0765335 0.231401 -0.969843
8.43875 7.37822 359.831 0.101376 0.16443 -0.981166
8.75702 7.41536 359.88 0.0696041 0.148121 -0.986517
9.02496 7.44591 359.885 0.136405 0.161327 -0.977429
9.4139 7.49193 359.995 0.121029 0.130741 -0.984001
9.66948 7.52121 359.988 0.0515933 0.185886 -0.981216
9.98958 7.55844 360.037 0.131132 0.200822 -0.970812
10.3116 7.5959 360.088 0.0918163 0.138543 -0.986091
10.5765 7.62632 360.088 0.108584 0.186275 -0.976479
10.9335 7.6681 360.168 0.189389 0.247312 -0.950247
11.3542 7.71818 360.303 0.142658 0.276737 -0.950298
11.6203 7.74828 360.304 0.0682053 0.283113 -0.956658
11.9289 7.78408 360.341 0.121793 0.204458 -0.971269
12.3007 7.82777 360.433 0.135384 0.220363 -0.965977
12.6185 7.86484 360.477 0.124278 0.277962 -0.952519
12.9214 7.89968 360.509 0.169897 0.24651 -0.954132
13.3019 7.94433 360.607 0.0984648 0.266849 -0.958695
13.533 7.96987 360.575 0.0874509 0.304638 -0.948445
13.9325 8.01859 360.689 0.137469 0.281684 -0.949609
14.2582 8.05557 360.738 0.0938026 0.259256 -0.961243
14.5315 8.08688 360.742 0.103604 0.22183 -0.969566
14.8352 8.12339 360.773 0.0659041 0.160677 -0.984804
15.1502 8.15907 360.809 -0.092931 0.18144 -0.979001
-29.1115 3.48827 382.488 -0.835691 0.243385 -0.492326
-29.0275 3.49545 382.33 -0.86445 0.128576 -0.485998
-28.923 3.50632 382.198 -0.838811 0.149904 -0.523379
-28.8302 3.51473 382.048 -0.849717 0.167005 -0.500091
-28.7589 3.52197 381.883 -0.853094 0.136433 -0.503604
-28.6603 3.53152 381.74 -0.857189 0.0562095 -0.511926
-28.5583 3.54034 381.604 -0.851349 0.0938564 -0.516135
-28.4757 3.54864 381.445 -0.806663 0.157934 -0.569519
-28.3776 3.55869 381.306 -0.789524 0.158598 -0.592874
-28.2635 3.57045 381.183 -0.806473 0.122112 -0.578523
-28.1758 3.57828 381.031 -0.811725 0.0989183 -0.575602
-28.0699 3.58931 380.899 -0.825636 0.0919647 -0.556657
-27.9719 3.59857 380.758 -0.815042 0.115095 -0.567855
-27.8655 3.60858 380.625 -0.800806 0.160748 -0.576948
-27.7818 3.61728 380.471 -0.795992 0.176624 -0.578965
-27.6757 3.62712 380.34 -0.837465 0.153785 -0.524407
-27.5905 3.636 380.185 -0.887387 0.066681 -0.456178
-27.494 3.64503 380.041 -0.844985 0.112628 -0.522796
-27.4053 3.65406 379.894 -0.819005 0.182514 -0.543985
-27.323 3.66276 379.739 -0.807672 0.15201 -0.569701
-27.2191 3.67212 379.603 -0.831574 0.0660525 -0.551473
-27.1256 3.68089 379.458 -0.821241 0.0453356 -0.568778
-27.0174 3.69217 379.328 -0.78398 0.0930196 -0.613777
-26.9121 3.70277 379.198 -0.804119 0.0948369 -0.586855
-26.8038 3.71328 379.067 -0.780425 0.13404 -0.610713
-26.7043 3.72372 378.929 -0.762569 0.132764 -0.633137
-26.603 3.73362 378.795 -0.760035 0.126337 -0.637484
-17.6425 4.55309 359.618 -0.318247 0.260936 -0.91139
-17.457 4.57366 359.57 -0.405911 0.235225 -0.883122
-7.4729 5.70431 358.093 0.0901357 0.321473 -0.942619
-7.19198 5.73693 358.125 0.0744575 0.137755 -0.987664
-6.93364 5.76674 358.137 0.00712906 0.175043 -0.984535
-6.65285 5.79933 358.168 0.0184615 0.29166 -0.956344
-6.39265 5.82937 358.181 0.123185 0.280973 -0.951777
-6.06931 5.86726 358.251 0.127044 0.226997 -0.965574
-5.78023 5.9009 358.289 0.117025 0.196005 -0.973595
-5.51076 5.93206 358.309 0.0622847 0.0957637 -0.993453
-5.21717 5.96657 358.351 0.0415272 0.169923 -0.984582
-4.96527 5.99523 358.354 0.081188 0.243269 -0.966555
-4.6979 6.02547 358.372 0.0825155 0.204345 -0.975415
-4.41235 6.05933 358.405 0.0814869 0.227254 -0.97042
-4.12232 6.09306 358.443 0.0826267 0.225561 -0.970719
-3.80499 6.13018 358.505 0.0858272 0.216199 -0.97257
-3.56084 6.15821 358.5 0.0506311 0.200674 -0.978349
-3.26899 6.19216 358.538 0.00853775 0.253977 -0.967173
-3.0458 6.21757 358.513 0.074615 0.238493 -0.968274
-2.70599 6.25747 358.595 0.128281 0.22595 -0.965656
-2.42409 6.29018 358.623 0.120825 0.246548 -0.961569
-2.12667 6.32481 358.665 0.0882371 0.161815 -0.982868
-1.86148 6.35544 358.677 0.101911 0.180389 -0.978302
-1.53171 6.39409 358.748 0.139452 0.181966 -0.973366
-1.241 6.42789 358.783 0.1182 0.118588 -0.985883
-0.937604 6.46325 358.829 0.133819 0.115929 -0.984202
-0.600653 6.50279 358.905 0.0572041 0.193014 -0.979527
-0.352639 6.53127 358.901 -0.0107621 0.281334 -0.95955
-0.0975588 6.56062 358.903 0.0699944 0.247346 -0.966396
0.205184 6.59425 358.947 0.158642 0.256089 -0.953547
0.549229 6.63631 359.028 0.0984841 0.234276 -0.967169
0.767031 6.66103 358.996 0.0777115 0.0797064 -0.993785
1.10591 6.70101 359.071 0.0241849 0.0726619 -0.997063
1.33246 6.7266 359.046 0.0352988 0.187812 -0.981571
1.66311 6.76533 359.114 0.114272 0.197143 -0.973692
1.91216 6.79333 359.109 0.114412 0.191979 -0.974707
2.23649 6.83187 359.17 0.132965 0.122996 -0.983459
2.56293 6.87008 359.233 0.128012 0.185641 -0.974243
2.8784 6.90691 359.286 0.082578 0.281323 -0.956053
3.11453 6.93356 359.268 0.0558822 0.211999 -0.975671
3.43632 6.97152 359.326 0.047271 0.210141 -0.976528
3.69363 7.00113 359.326 0.0706848 0.232834 -0.969944
3.99718 7.03664 359.367 0.130603 0.131219 -0.982713
4.29565 7.0712 359.403 0.126123 0.0384955 -0.991267
4.62074 7.10921 359.463 0.125511 0.0950912 -0.987525
4.90305 7.14192 359.484 0.0834808 0.110383 -0.990377
5.2125 7.17799 359.529 0.0578172 0.178182 -0.982298
5.48624 7.20963 359.542 0.0817427 0.220043 -0.972059
5.80094 7.24635 359.591 0.120799 0.172852 -0.977512
6.10727 7.28203 359.632 0.12433 0.210672 -0.969618
6.41956 7.31845 359.678 0.0265887 0.175207 -0.984173
6.65272 7.34505 359.655 -0.033019 0.174868 -0.984038
6.93571 7.37783 359.674 0.124743 0.165318 -0.97832
7.30315 7.42108 359.768 0.103002 0.191221 -0.976128
7.58206 7.45395 359.784 0.0950209 0.281716 -0.954781
7.89767 7.49016 359.831 0.132138 0.198196 -0.971215
8.19643 7.52499 359.864 0.0474548 0.135476 -0.989643
8.46605 7.55599 359.87 0.0899822 0.165457 -0.982103
8.80369 7.59553 359.936 0.0770234 0.189292 -0.978895
9.06706 7.62586 359.937 0.106602 0.244512 -0.963768
9.39928 7.66485 359.997 0.140318 0.173724 -0.974746
9.72031 7.7022 360.048 0.079631 0.109226 -0.990822
10.0035 7.73499 360.065 0.0983491 0.160655 -0.982099
10.3006 7.76949 360.094 0.11922 0.150628 -0.981375
10.6746 7.81352 360.189 0.151385 0.217672 -0.96421
11.0193 7.85392 360.258 0.197983 0.241392 -0.950017
11.3568 7.89294 360.321 0.14824 0.188262 -0.970867
11.6619 7.9289 360.356 0.0398111 0.146064 -0.988474
11.9194 7.95849 360.349 0.129559 0.224796 -0.965754
12.2882 8.00176 360.438 0.164144 0.228683 -0.959563
12.6123 8.03944 360.488 0.12666 0.186584 -0.97424
12.9618 8.08067 360.559 0.176643 0.206578 -0.962353
13.3367 8.1248 360.652 0.129836 0.197949 -0.971575
13.6575 8.1622 360.698 0.0893483 0.259923 -0.961487
13.9578 8.19602 360.726 0.123809 0.24413 -0.961807
14.2467 8.23042 360.744 0.0889534 0.133603 -0.987035
14.5827 8.26984 360.802 0.0677936 0.191808 -0.979088
