24.4413 51.4648 401.327 0.933014 -0.226453 0.279649
24.3952 51.442 401.503 0.899637 -0.254586 0.354738
24.2959 51.4381 401.683 0.895795 -0.27973 0.345402
24.2551 51.418 401.858 0.914443 -0.284848 0.2875
24.1752 51.4102 402.037 0.901961 -0.280962 0.327914
24.1067 51.3941 402.214 0.897639 -0.276641 0.343096
24.0486 51.3716 402.391 0.866278 -0.321181 0.382629
23.9539 51.3669 402.57 0.858265 -0.323964 0.39803
23.8489 51.3617 402.751 0.852597 -0.270925 0.446853
23.7429 51.3544 402.931 0.857038 -0.210617 0.470241
23.6606 51.3431 403.11 0.820555 -0.245209 0.516297
23.5218 51.344 403.293 0.82352 -0.31614 0.471032
23.4385 51.3329 403.472 0.874712 -0.30808 0.374121
23.3688 51.3189 403.651 0.813266 -0.297762 0.499936
23.2189 51.3222 403.835 0.765169 -0.30306 0.568042
23.1002 51.3187 404.017 0.719323 -0.339201 0.606232
22.9337 51.3256 404.202 0.720181 -0.429332 0.544989
22.8327 51.3183 404.383 0.712718 -0.468021 0.522484
22.6804 51.322 404.568 0.627219 -0.473184 0.618622
22.4501 51.3425 404.759 0.609253 -0.489644 0.623746
22.305 51.3446 404.944 0.621046 -0.481233 0.618642
22.1675 51.3451 405.128 0.570045 -0.511906 0.642651
21.8935 51.375 405.323 0.53547 -0.491382 0.686889
21.6896 51.3897 405.512 0.531981 -0.445342 0.720186
21.4421 51.4138 405.705 0.499354 -0.469578 0.728109
21.1783 51.4413 405.9 0.466271 -0.491047 0.735842
20.8876 51.4746 406.097 0.459983 -0.478754 0.747804
20.5708 51.5135 406.296 0.42692 -0.414613 0.803639
20.2765 51.5474 406.494 0.368378 -0.49481 0.787059
19.8699 51.6055 406.701 0.339521 -0.562477 0.753886
19.5106 51.6533 406.904 0.310925 -0.482094 0.819091
18.9715 51.7396 407.122 0.275282 -0.508071 0.81614
12.4453 52.9895 408.534 0.331388 -0.641906 0.691475
12.1499 53.0233 408.737 0.429889 -0.630405 0.646363
11.9071 53.0454 408.936 0.519502 -0.548103 0.655516
11.6301 53.0749 409.138 0.516688 -0.43097 0.739796
11.3621 53.1023 409.339 0.519772 -0.50054 0.692313
11.1894 53.1094 409.533 0.53878 -0.510144 0.670424
10.939 53.1331 409.734 0.49847 -0.533247 0.683503
10.6407 53.1669 409.939 0.493975 -0.605399 0.624084
10.5122 53.1645 410.129 0.487702 -0.565701 0.664928
10.1892 53.2035 410.337 0.465331 -0.587305 0.662224
9.97649 53.219 410.535 0.433319 -0.582002 0.688119
9.62027 53.265 410.746 0.417334 -0.585249 0.69521
9.38743 53.2848 410.946 0.426488 -0.654323 0.624476
9.17779 53.2995 411.145 0.362797 -0.633148 0.683741
8.72249 53.3665 411.366 0.312993 -0.602107 0.734509
8.36965 53.4116 411.578 0.304357 -0.643732 0.702123
25.1021 52.3154 396.487 0.975779 -0.100615 -0.194245
25.1321 52.2789 396.658 0.977723 -0.0508501 -0.203644
25.165 52.2396 396.827 0.986218 -0.0459886 -0.158932
25.1857 52.208 396.999 0.991173 -0.0796766 -0.105957
25.2085 52.1736 397.171 0.988682 -0.124966 -0.0830098
25.2154 52.1405 397.342 0.981444 -0.170268 -0.0881848
25.2371 52.1094 397.514 0.967864 -0.213395 -0.133049
25.2419 52.0795 397.686 0.975424 -0.1893 -0.112752
25.2483 52.0486 397.858 0.988373 -0.140758 -0.0575057
25.2505 52.019 398.03 0.992103 -0.117633 -0.0435268
25.2523 51.9891 398.202 0.995684 -0.0920265 -0.0119994
25.2483 51.9605 398.375 0.992401 -0.0801367 0.0933695
25.2151 51.9393 398.549 0.977877 -0.0769623 0.194508
25.1584 51.9172 398.724 0.979444 -0.0698681 0.189229
25.1445 51.8945 398.897 0.975368 -0.0642039 0.211035
25.1004 51.8792 399.074 0.980516 -0.0709368 0.183182
25.0762 51.854 399.247 0.988757 -0.0874954 0.121259
25.0506 51.831 399.421 0.98463 -0.0981989 0.144434
25.024 51.8081 399.595 0.957569 -0.110674 0.266106
24.944 51.7947 399.772 0.966489 -0.0983006 0.237143
24.9259 51.7695 399.946 0.975806 -0.0885541 0.199903
24.8743 51.7511 400.122 0.939853 -0.127751 0.31679
24.8301 51.7322 400.297 0.93399 -0.210968 0.288365
24.7677 51.7204 400.475 0.941582 -0.205264 0.267003
24.7052 51.7012 400.65 0.956132 -0.14429 0.254935
24.6566 51.6787 400.825 0.951368 -0.14426 0.272189
24.6109 51.6688 401.002 0.924314 -0.215504 0.314962
24.5423 51.6495 401.179 0.912418 -0.27044 0.307173
24.4742 51.6362 401.357 0.935315 -0.243238 0.256946
24.437 51.6182 401.532 0.905714 -0.265626 0.330341
24.3463 51.6097 401.712 0.883091 -0.336991 0.326477
24.2934 51.5872 401.887 0.903485 -0.318368 0.28698
24.2187 51.5744 402.065 0.890247 -0.318084 0.326011
24.1612 51.5561 402.242 0.898266 -0.327886 0.29259
24.0896 51.5482 402.42 0.880543 -0.272731 0.387636
23.985 51.5379 402.6 0.85114 -0.266614 0.452193
23.8975 51.5277 402.779 0.830991 -0.250784 0.49655
23.7579 51.5291 402.961 0.858507 -0.270042 0.435939
23.7094 51.5104 403.138 0.839192 -0.302385 0.452018
23.5797 51.5094 403.32 0.803598 -0.373799 0.463146
23.5037 51.4968 403.499 0.838588 -0.403718 0.365762
23.3987 51.4905 403.68 0.818168 -0.289621 0.49671
23.2759 51.488 403.862 0.775353 -0.337559 0.533743
23.1617 51.4836 404.044 0.728366 -0.440759 0.524609
23.0324 51.4825 404.227 0.732533 -0.44729 0.513154
22.9135 51.4791 404.409 0.751167 -0.414572 0.51369
22.7813 51.4785 404.592 0.677618 -0.366696 0.63747
22.612 51.486 404.779 0.62227 -0.441667 0.646305
22.4089 51.5008 404.968 0.638219 -0.50475 0.581295
22.2363 51.5089 405.154 0.598771 -0.439601 0.669495
22.0166 51.5272 405.345 0.535652 -0.439374 0.721129
21.7534 51.5548 405.539 0.528461 -0.502041 0.684605
21.5522 51.569 405.729 0.499773 -0.514172 0.697032
21.2853 51.5973 405.923 0.461764 -0.493731 0.736888
20.9885 51.6321 406.121 0.431662 -0.503496 0.748438
20.6869 51.6678 406.319 0.450203 -0.493296 0.744296
20.4401 51.6918 406.513 0.416633 -0.462459 0.782655
20.0649 51.7432 406.717 0.348906 -0.499947 0.792665
19.6486 51.8035 406.925 0.319096 -0.517628 0.793876
19.2838 51.8527 407.13 0.277015 -0.559378 0.781255
12.6545 53.1279 408.549 0.307321 -0.605087 0.734454
12.2989 53.1748 408.757 0.393572 -0.588668 0.706096
11.9471 53.2204 408.965 0.460109 -0.567026 0.683213
11.7583 53.2311 409.16 0.507359 -0.528163 0.680904
11.5152 53.2533 409.359 0.497344 -0.54903 0.671726
11.2197 53.2868 409.563 0.539928 -0.55702 0.631036
11.0816 53.2865 409.755 0.527111 -0.543445 0.653316
10.8606 53.304 409.953 0.478848 -0.605495 0.635673
10.5539 53.3398 410.159 0.499312 -0.578137 0.645326
10.3733 53.3485 410.354 0.492118 -0.554845 0.670796
10.0971 53.3777 410.558 0.445126 -0.573737 0.687524
9.83326 53.4042 410.76 0.422887 -0.618406 0.662375
9.57784 53.4288 410.963 0.406635 -0.722925 0.558594
9.32028 53.4539 411.166 0.399704 -0.592089 0.699762
9.00316 53.4917 411.374 0.352733 -0.551936 0.755609
8.61259 53.5451 411.589 0.316588 -0.655675 0.685465
8.30967 53.5797 411.797 0.272586 -0.630451 0.726793
25.1154 52.4868 396.516 0.983407 -0.106635 -0.146765
25.1458 52.4526 396.687 0.975973 -0.0913586 -0.197812
25.1774 52.4165 396.858 0.977792 -0.0879034 -0.190254
25.2122 52.3798 397.029 0.985697 -0.0822008 -0.147122
25.2246 52.3456 397.2 0.988727 -0.0856861 -0.122789
25.2555 52.3117 397.371 0.98617 -0.104082 -0.128982
25.2716 52.2787 397.542 0.987103 -0.131903 -0.0907201
25.2757 52.2489 397.715 0.989045 -0.140327 -0.045806
25.2753 52.2195 397.887 0.990756 -0.132239 -0.0302457
25.2722 52.1906 398.059 0.993497 -0.113301 -0.0112643
25.2658 52.1621 398.232 0.996822 -0.0769954 0.0204252
25.2515 52.1385 398.406 0.992139 -0.03947 0.11875
25.2159 52.1174 398.58 0.977503 -0.0558914 0.20338
25.1917 52.0959 398.755 0.975797 -0.10251 0.193165
25.1388 52.0749 398.929 0.977234 -0.0746399 0.198601
25.1003 52.0523 399.103 0.985528 -0.0567575 0.159726
25.089 52.0274 399.277 0.988779 -0.0981013 0.112659
25.0612 52.0041 399.451 0.983461 -0.10031 0.150808
25.0251 51.9782 399.625 0.955596 -0.10808 0.274145
24.9578 51.9694 399.802 0.957497 -0.170444 0.232697
24.9397 51.9455 399.977 0.969034 -0.183544 0.165182
24.8925 51.9257 400.152 0.959669 -0.158616 0.232111
24.8529 51.9046 400.327 0.935271 -0.196368 0.294463
24.7631 51.892 400.504 0.931298 -0.160777 0.326854
24.7194 51.8757 400.68 0.956215 -0.139357 0.257357
24.6741 51.8576 400.857 0.966635 -0.147389 0.209506
24.6504 51.8325 401.03 0.94707 -0.175817 0.2686
24.5747 51.8198 401.208 0.915235 -0.22444 0.334622
24.5125 51.8018 401.385 0.943871 -0.222163 0.24444
24.4808 51.7812 401.56 0.936156 -0.230707 0.265306
24.4228 51.7617 401.736 0.891032 -0.286482 0.352121
24.3258 51.753 401.914 0.887748 -0.362574 0.283627
24.2997 51.7344 402.09 0.876079 -0.373757 0.304617
24.1875 51.7315 402.271 0.871497 -0.350273 0.343221
24.1279 51.7137 402.448 0.871748 -0.294132 0.391845
24.027 51.7065 402.628 0.835175 -0.301292 0.460115
23.9121 51.7025 402.809 0.832389 -0.284936 0.475332
23.8345 51.6902 402.987 0.853068 -0.33829 0.397284
23.7505 51.6794 403.167 0.846831 -0.37712 0.375043
23.6759 51.6665 403.345 0.824343 -0.346984 0.447282
23.5526 51.6642 403.527 0.801491 -0.373919 0.466686
23.4248 51.6629 403.709 0.816331 -0.372729 0.441222
23.3768 51.6442 403.886 0.809769 -0.391558 0.436986
23.2579 51.6409 404.068 0.744319 -0.405516 0.530609
23.0969 51.6467 404.254 0.744607 -0.365956 0.558245
22.9568 51.648 404.437 0.765519 -0.317372 0.559692
22.8114 51.6504 404.622 0.735801 -0.325592 0.59379
22.6675 51.6524 404.806 0.684295 -0.337359 0.646474
22.495 51.6607 404.993 0.66479 -0.371107 0.648332
22.3339 51.6664 405.179 0.635098 -0.372318 0.676779
22.1135 51.6849 405.369 0.571251 -0.425989 0.701573
21.9328 51.6925 405.557 0.550197 -0.484328 0.680228
21.6979 51.7165 405.749 0.511043 -0.494039 0.703393
21.4304 51.7451 405.944 0.459511 -0.531147 0.711851
21.1859 51.7687 406.137 0.416418 -0.518446 0.746867
20.7917 51.8246 406.343 0.432993 -0.527453 0.730966
20.5656 51.8442 406.535 0.444318 -0.494358 0.747122
20.2349 51.8863 406.736 0.383636 -0.452753 0.804884
19.8815 51.9332 406.939 0.348332 -0.525842 0.775986
19.5029 51.9855 407.144 0.308848 -0.507591 0.804341
12.5242 53.3097 408.771 0.38168 -0.550985 0.742116
12.1547 53.3594 408.981 0.386061 -0.652764 0.65181
11.912 53.3817 409.18 0.451133 -0.657489 0.603479
11.6443 53.4094 409.381 0.485676 -0.554368 0.675866
11.446 53.4221 409.577 0.51412 -0.601978 0.610985
11.216 53.4417 409.776 0.560653 -0.57105 0.599642
11.0166 53.4546 409.972 0.523416 -0.468228 0.711898
10.7365 53.4848 410.176 0.49483 -0.571591 0.654543
10.5441 53.4962 410.372 0.472126 -0.641165 0.604983
10.2752 53.524 410.575 0.449083 -0.619679 0.643679
10.0627 53.5396 410.774 0.449416 -0.660189 0.60181
9.84274 53.5569 410.973 0.407199 -0.645415 0.646242
9.46457 53.6079 411.186 0.387219 -0.626434 0.676493
9.19803 53.635 411.39 0.387787 -0.594052 0.704786
8.89049 53.6708 411.598 0.351752 -0.625182 0.696719
8.52544 53.7189 411.811 0.318327 -0.616244 0.720355
8.23087 53.7519 412.018 0.264496 -0.643342 0.718438
25.1288 52.6932 396.374 0.99988 -0.0100918 0.011785
25.141 52.6627 396.546 0.988028 -0.0736661 -0.135549
25.1818 52.622 396.716 0.97571 -0.0999656 -0.19493
25.2008 52.5902 396.888 0.980083 -0.0895479 -0.177253
25.2258 52.5531 397.058 0.98829 -0.0573509 -0.141397
25.2433 52.5222 397.23 0.989688 -0.0478318 -0.135019
25.269 52.4837 397.4 0.989758 -0.0394122 -0.137205
25.2855 52.4491 397.571 0.996723 -0.0334184 -0.073668
25.2953 52.4189 397.744 0.99823 -0.0557052 -0.0208197
25.2896 52.3915 397.916 0.998421 -0.0559861 0.00456518
25.2892 52.3653 398.089 0.998391 -0.0369744 0.0429879
25.2651 52.3405 398.263 0.99623 -0.0206829 0.0842445
25.249 52.3131 398.436 0.992558 -0.0305713 0.117873
25.2293 52.2906 398.61 0.985345 -0.0770339 0.152186
25.194 52.2676 398.784 0.969063 -0.109929 0.220982
25.1381 52.2528 398.96 0.973702 -0.088514 0.209929
25.1276 52.2275 399.134 0.989033 -0.104737 0.104138
25.1044 52.2018 399.307 0.985211 -0.130096 0.111512
25.0752 52.1833 399.483 0.982741 -0.083191 0.165224
25.0437 52.1578 399.656 0.972118 -0.0943234 0.214685
25.0177 52.1316 399.83 0.959835 -0.183952 0.211846
24.9617 52.1164 400.006 0.959242 -0.204309 0.195224
24.9239 52.0953 400.181 0.965358 -0.165003 0.202134
24.8876 52.0744 400.356 0.9256 -0.182962 0.331347
24.7877 52.0687 400.535 0.92207 -0.203351 0.329295
24.7539 52.0451 400.71 0.952147 -0.195358 0.235054
24.688 52.0308 400.886 0.962364 -0.201973 0.181829
24.6736 52.0049 401.06 0.954282 -0.190975 0.229946
24.603 51.9884 401.237 0.923077 -0.191598 0.333495
24.5438 51.9776 401.414 0.941856 -0.239607 0.235576
24.5016 51.954 401.589 0.951537 -0.212804 0.222019
24.4509 51.9372 401.766 0.941383 -0.155263 0.299484
24.4213 51.9134 401.94 0.923475 -0.244347 0.295786
24.3331 51.9048 402.12 0.895801 -0.277133 0.347473
24.2688 51.8861 402.296 0.865344 -0.292343 0.407081
24.1565 51.8852 402.477 0.867978 -0.311841 0.386484
24.0966 51.8676 402.655 0.832 -0.283576 0.476824
23.9505 51.8669 402.837 0.853099 -0.298836 0.42769
23.9154 51.8502 403.014 0.880429 -0.299938 0.367263
23.7966 51.8473 403.195 0.84122 -0.357712 0.405452
23.7123 51.8366 403.374 0.843523 -0.32302 0.4291
23.6155 51.8286 403.554 0.808399 -0.349228 0.473847
23.5295 51.8182 403.733 0.790203 -0.461632 0.403082
23.4046 51.8163 403.916 0.81168 -0.413333 0.412712
23.3128 51.8071 404.096 0.746416 -0.340994 0.571477
23.1245 51.819 404.283 0.717779 -0.374898 0.586724
23.0178 51.813 404.464 0.74949 -0.386753 0.537296
22.8834 51.8131 404.648 0.724995 -0.390126 0.567613
22.7343 51.8164 404.833 0.672425 -0.429672 0.602683
22.5493 51.8274 405.02 0.649988 -0.426064 0.629273
22.3671 51.8378 405.208 0.656352 -0.420853 0.626166
22.2388 51.8365 405.391 0.59326 -0.454575 0.664383
21.9642 51.8692 405.586 0.570037 -0.472941 0.671851
21.8117 51.8707 405.772 0.56522 -0.443399 0.695646
21.5835 51.891 405.964 0.49757 -0.462174 0.734043
21.2776 51.928 406.162 0.449121 -0.427594 0.784508
20.9794 51.9633 406.36 0.449018 -0.44514 0.774747
20.6743 52.0001 406.558 0.437973 -0.513099 0.738179
20.3627 52.0382 406.758 0.409346 -0.489991 0.769639
20.0471 52.0772 406.958 0.378158 -0.473016 0.795771
19.6256 52.139 407.166 0.346427 -0.433272 0.832024
12.673 53.461 408.792 0.389361 -0.607619 0.692241
12.4059 53.4888 408.993 0.394396 -0.589717 0.70476
12.044 53.5369 409.202 0.420747 -0.616044 0.665929
11.8107 53.5573 409.4 0.476829 -0.593101 0.648741
11.5361 53.5866 409.603 0.495867 -0.584584 0.642166
11.3046 53.6066 409.801 0.523992 -0.568593 0.634141
11.083 53.6244 410 0.532566 -0.572334 0.623544
10.9275 53.628 410.193 0.529382 -0.582927 0.616402
10.7039 53.6462 410.391 0.521171 -0.551376 0.651434
10.4731 53.6659 410.591 0.481458 -0.590813 0.647409
10.214 53.6917 410.793 0.468667 -0.65317 0.594744
9.99675 53.7084 410.992 0.448317 -0.571897 0.686983
9.70929 53.7402 411.198 0.412582 -0.549882 0.726227
9.37796 53.7814 411.407 0.411733 -0.605503 0.68106
9.11131 53.8086 411.611 0.364306 -0.628947 0.686809
8.7457 53.857 411.825 0.351753 -0.633536 0.689132
8.42239 53.8963 412.034 0.330457 -0.566641 0.754795
25.1362 52.8661 396.404 0.99707 0.015419 -0.0749244
25.1622 52.8328 396.575 0.982004 -0.0748543 -0.173393
25.1928 52.794 396.746 0.98339 -0.0556645 -0.172759
25.2142 52.7614 396.917 0.989733 -0.0554671 -0.13173
25.2327 52.7299 397.089 0.990508 -0.0487631 -0.128519
25.2543 52.695 397.26 0.991749 -0.0332444 -0.123809
25.2705 52.6628 397.432 0.993183 -0.0171813 -0.11529
25.2892 52.6298 397.603 0.996868 0.0124459 -0.0780944
25.2997 52.5978 397.775 0.999855 0.0164643 -0.00429066
25.29 52.5709 397.947 0.998769 0.0240053 0.0434116
25.2783 52.5445 398.121 0.996753 0.0255866 0.0763487
25.264 52.5187 398.294 0.996504 0.000360934 0.0835421
25.2606 52.4909 398.467 0.996447 -0.0337853 0.0771511
25.2428 52.4645 398.64 0.989967 -0.0373029 0.136287
25.2162 52.4428 398.814 0.966782 -0.0796237 0.242883
25.1518 52.4267 398.99 0.97874 -0.106399 0.175348
25.1484 52.3974 399.163 0.992231 -0.0941045 0.0813798
25.1186 52.3727 399.336 0.979242 -0.109728 0.170426
25.0703 52.3572 399.513 0.983238 -0.082201 0.162744
25.0572 52.3298 399.686 0.988676 -0.0832187 0.124876
25.0317 52.3075 399.86 0.972997 -0.119048 0.197749
24.9872 52.2882 400.035 0.958286 -0.155216 0.239992
24.9377 52.2699 400.211 0.965711 -0.164378 0.200955
24.9013 52.2469 400.385 0.935082 -0.160882 0.315815
24.8247 52.2399 400.564 0.92469 -0.18922 0.330368
24.7704 52.2197 400.739 0.9536 -0.204078 0.221357
24.744 52.1937 400.914 0.953693 -0.229652 0.194241
24.6891 52.179 401.09 0.950356 -0.19792 0.240108
24.6368 52.1643 401.267 0.941838 -0.182552 0.282162
24.5954 52.1413 401.442 0.937778 -0.227838 0.262035
24.5244 52.1293 401.619 0.929706 -0.237395 0.281585
24.4566 52.1151 401.797 0.963997 -0.16035 0.212126
24.4367 52.0887 401.97 0.951333 -0.115708 0.285615
24.3544 52.0779 402.149 0.91933 -0.177351 0.351254
24.3075 52.0626 402.326 0.886497 -0.235921 0.398075
24.1992 52.0536 402.506 0.870453 -0.253158 0.422165
24.121 52.0431 402.685 0.851944 -0.224559 0.473037
23.9984 52.0443 402.866 0.86771 -0.241794 0.434298
23.9314 52.0252 403.043 0.914026 -0.242417 0.325254
23.882 52.0053 403.22 0.848997 -0.276435 0.450319
23.7432 52.0078 403.403 0.858774 -0.307463 0.409845
23.7076 51.9865 403.579 0.867509 -0.315716 0.384384
23.5924 51.9825 403.76 0.805819 -0.362022 0.468611
23.4873 51.9764 403.941 0.790073 -0.392776 0.47065
23.3669 51.9735 404.123 0.748983 -0.390815 0.535059
23.2435 51.9713 404.306 0.714448 -0.394493 0.577875
23.0723 51.9795 404.492 0.739738 -0.423922 0.522568
22.9651 51.9737 404.673 0.754449 -0.379013 0.535869
22.8335 51.9733 404.857 0.684854 -0.399307 0.609531
22.6519 51.9836 405.044 0.647457 -0.423687 0.633474
22.4929 51.9891 405.23 0.683337 -0.424833 0.593774
22.3295 51.9955 405.416 0.620276 -0.419135 0.663011
22.1256 52.0107 405.606 0.546956 -0.497275 0.673466
21.8833 52.0341 405.798 0.553858 -0.531501 0.640896
21.6839 52.0482 405.988 0.509044 -0.421071 0.750715
21.3618 52.0889 406.187 0.457136 -0.42463 0.781483
21.0702 52.1229 406.385 0.473103 -0.464201 0.748793
20.8449 52.1426 406.577 0.449442 -0.484072 0.750784
20.5132 52.1852 406.778 0.412363 -0.490534 0.76768
20.1739 52.2295 406.98 0.387584 -0.432132 0.814273
19.7594 52.2899 407.188 0.357264 -0.433367 0.827378
12.8463 53.6069 408.81 0.376362 -0.61599 0.692032
12.5673 53.6374 409.012 0.419622 -0.533291 0.734519
12.2322 53.6799 409.219 0.398735 -0.603634 0.690388
11.9613 53.7086 409.42 0.421612 -0.671536 0.60933
11.7375 53.727 409.618 0.460366 -0.621137 0.634234
11.4895 53.7507 409.819 0.51711 -0.579992 0.629449
11.3059 53.7604 410.014 0.523921 -0.599524 0.605043
11.0254 53.7911 410.217 0.506454 -0.603958 0.615418
10.8041 53.8089 410.416 0.549596 -0.560112 0.619854
10.6489 53.8124 410.609 0.524074 -0.571888 0.631102
10.4126 53.8334 410.809 0.494193 -0.556878 0.667578
10.141 53.862 411.013 0.471895 -0.531603 0.703359
9.83033 53.8989 411.22 0.436031 -0.545555 0.715714
9.57437 53.924 411.423 0.437162 -0.620632 0.650927
9.36789 53.9385 411.622 0.38316 -0.607927 0.695423
8.93404 54.0017 411.841 0.358523 -0.594269 0.719934
8.65393 54.0319 412.047 0.347317 -0.634206 0.690763
25.1254 53.077 396.263 0.99769 0.0350207 -0.058212
25.1613 53.0419 396.434 0.979069 -0.0552987 -0.195871
25.1822 53.0057 396.605 0.986873 -0.0580249 -0.150716
25.2009 52.9737 396.777 0.986017 -0.0394 -0.161923
25.237 52.9393 396.948 0.993228 -0.00914526 -0.115818
25.2398 52.9056 397.119 0.994416 -0.0106918 -0.104984
25.2679 52.8698 397.29 0.994166 -0.0263267 -0.104603
25.2708 52.8401 397.462 0.996576 -0.0236296 -0.0792365
25.2845 52.8079 397.634 0.998061 0.00415864 -0.0621032
25.285 52.7784 397.806 0.999775 0.0170017 0.0126785
25.2771 52.7526 397.98 0.998672 0.0141231 0.0495362
25.2736 52.7234 398.152 0.998877 -0.00191383 0.0473356
25.27 52.6939 398.324 0.998882 -0.00411283 0.0470969
25.2585 52.6653 398.497 0.995356 0.0263579 0.0925835
25.2296 52.6433 398.671 0.99244 0.0249608 0.120167
25.2211 52.6166 398.844 0.976455 -0.00819786 0.215564
25.1653 52.6005 399.02 0.982338 -0.0536098 0.179271
25.1564 52.5727 399.193 0.992831 -0.0874699 0.0814626
25.1325 52.55 399.367 0.975216 -0.102001 0.196342
25.0853 52.5313 399.542 0.982081 -0.111614 0.151851
25.077 52.5047 399.716 0.989717 -0.104863 0.0972806
25.0454 52.4822 399.89 0.979892 -0.104041 0.170257
25.0165 52.459 400.064 0.964136 -0.133619 0.22932
24.9624 52.4459 400.241 0.963361 -0.151137 0.221569
24.9291 52.4243 400.416 0.9434 -0.155876 0.292745
24.8455 52.4094 400.593 0.932432 -0.193111 0.305415
24.8146 52.3837 400.767 0.955691 -0.224811 0.190037
24.7669 52.3698 400.944 0.952841 -0.191343 0.235544
24.708 52.3524 401.12 0.947762 -0.183011 0.261255
24.6671 52.3323 401.295 0.947939 -0.219009 0.231187
24.6128 52.3152 401.472 0.944209 -0.20348 0.258971
24.5705 52.2938 401.647 0.912299 -0.220489 0.345101
24.4705 52.2882 401.827 0.931703 -0.264059 0.249404
24.4505 52.2635 402.001 0.953368 -0.203687 0.222715
24.392 52.2472 402.178 0.937837 -0.168209 0.303591
24.3394 52.2262 402.354 0.893526 -0.229496 0.38593
24.2278 52.2251 402.535 0.862824 -0.22654 0.4519
24.1415 52.2149 402.714 0.866112 -0.192107 0.461459
24.039 52.2083 402.894 0.877579 -0.203951 0.433889
23.9677 52.1948 403.072 0.922088 -0.241036 0.302747
23.9047 52.1807 403.25 0.86842 -0.248431 0.429102
23.7911 52.1753 403.431 0.861166 -0.311413 0.401764
23.731 52.1594 403.608 0.885956 -0.312934 0.342278
23.6471 52.1473 403.788 0.848938 -0.252972 0.464015
23.5474 52.1397 403.969 0.825151 -0.279657 0.490834
23.4345 52.1369 404.15 0.780343 -0.303316 0.546868
23.2776 52.1421 404.335 0.742772 -0.342076 0.575564
23.1622 52.1381 404.517 0.74258 -0.349549 0.571305
22.9929 52.146 404.703 0.793789 -0.300846 0.528574
22.911 52.1348 404.883 0.720472 -0.341611 0.603508
22.6938 52.153 405.073 0.649674 -0.405269 0.643181
22.5348 52.1586 405.258 0.6901 -0.424452 0.586176
22.397 52.1595 405.443 0.65872 -0.465445 0.591141
22.2512 52.1621 405.628 0.569899 -0.475775 0.669965
22.0045 52.1866 405.821 0.540812 -0.465153 0.700825
21.7704 52.2084 406.013 0.525899 -0.411499 0.744378
21.5096 52.2359 406.208 0.469853 -0.423127 0.774727
21.208 52.2723 406.406 0.468836 -0.512376 0.719488
20.9533 52.2984 406.6 0.464836 -0.481336 0.743131
20.6384 52.3376 406.8 0.420899 -0.424498 0.801652
20.2668 52.389 407.004 0.400161 -0.420174 0.814448
19.9401 52.4307 407.205 0.364008 -0.43171 0.825303
19.4855 52.5 407.417 0.315762 -0.464235 0.827515
12.7115 53.7895 409.033 0.387311 -0.666314 0.637194
12.486 53.8086 409.23 0.431695 -0.568271 0.700505
12.1705 53.847 409.436 0.440644 -0.571569 0.6922
11.8663 53.883 409.64 0.452826 -0.567138 0.68797
11.5583 53.9197 409.846 0.504843 -0.613999 0.606745
11.4302 53.9176 410.036 0.550275 -0.565959 0.613911
11.203 53.9368 410.235 0.517925 -0.515344 0.68277
10.9648 53.9584 410.435 0.536891 -0.609143 0.583689
10.783 53.9678 410.63 0.530957 -0.565021 0.631535
10.4842 54.0024 410.836 0.502344 -0.531634 0.68192
10.2969 54.013 411.032 0.47586 -0.563313 0.675453
10.0374 54.039 411.235 0.451212 -0.575474 0.682083
9.77561 54.0655 411.438 0.457473 -0.621926 0.635552
9.5042 54.0941 411.643 0.411035 -0.563862 0.716317
9.1686 54.1364 411.853 0.366499 -0.616335 0.697001
8.89614 54.1651 412.058 0.344467 -0.690533 0.636008
8.56467 54.2065 412.269 0.331518 -0.592713 0.734021
25.1283 53.2535 396.294 0.983704 0.0725601 -0.164502
25.1618 53.2147 396.464 0.98445 0.0492401 -0.168621
25.1957 53.1792 396.635 0.992659 0.0128454 -0.120263
25.2071 53.1473 396.807 0.993251 -0.00574912 -0.115842
25.2206 53.1117 396.978 0.993711 0.0138433 -0.111115
25.2466 53.0803 397.149 0.993113 0.0255147 -0.114352
25.2717 53.0461 397.321 0.995844 0.0219654 -0.0883886
25.2794 53.0165 397.493 0.999075 0.00456075 -0.0427504
25.2849 52.9865 397.665 0.999203 -0.011595 -0.0381953
25.2902 52.9567 397.837 0.999851 -0.013079 0.0113044
25.2831 52.9282 398.01 0.999341 -0.025066 0.0262543
25.2807 52.9003 398.183 0.998921 -0.0194133 0.0421973
25.2586 52.878 398.357 0.995833 0.017203 0.0895571
25.2352 52.8503 398.53 0.994235 0.042885 0.0982732
25.2351 52.8209 398.702 0.993716 0.0381533 0.105227
25.2023 52.8023 398.877 0.984909 0.0301614 0.170423
25.1819 52.7765 399.05 0.990447 -0.0219865 0.136131
25.1704 52.7511 399.224 0.993511 -0.072359 0.0877506
25.1461 52.7267 399.398 0.980007 -0.0746457 0.184432
25.1036 52.7015 399.572 0.984103 -0.0913771 0.15229
25.0856 52.6788 399.746 0.990478 -0.0771673 0.114015
25.0563 52.6546 399.92 0.986028 -0.0574113 0.156372
25.0302 52.6335 400.095 0.972193 -0.0873239 0.217293
24.9756 52.6143 400.27 0.966305 -0.110087 0.232671
24.94 52.5899 400.445 0.957389 -0.118447 0.263396
24.8885 52.5764 400.621 0.950093 -0.162375 0.266377
24.8429 52.5598 400.797 0.955396 -0.179935 0.234184
24.7808 52.543 400.973 0.952565 -0.176488 0.247934
24.7525 52.5171 401.148 0.949929 -0.224141 0.217704
24.7014 52.5023 401.324 0.940742 -0.232389 0.246981
24.6459 52.4855 401.501 0.935684 -0.255121 0.243738
24.5952 52.4691 401.677 0.922087 -0.251328 0.294261
24.5463 52.4492 401.853 0.92054 -0.244823 0.304415
24.4657 52.4379 402.031 0.933812 -0.247459 0.258379
24.411 52.4208 402.208 0.952354 -0.168841 0.253999
24.3756 52.4028 402.384 0.902681 -0.147249 0.404333
24.2493 52.3982 402.565 0.856171 -0.177198 0.485358
24.1611 52.3885 402.744 0.863887 -0.236549 0.444684
24.0595 52.3825 402.924 0.876631 -0.293305 0.381432
24.0094 52.3636 403.101 0.902269 -0.316102 0.293241
23.9423 52.3515 403.279 0.881886 -0.297115 0.366058
23.8739 52.3352 403.456 0.848882 -0.358497 0.388431
23.7704 52.3288 403.637 0.849098 -0.354997 0.391165
23.67 52.3231 403.817 0.852916 -0.282871 0.438769
23.5724 52.3157 403.998 0.83158 -0.296865 0.46941
23.465 52.3085 404.179 0.800628 -0.301511 0.51777
23.3663 52.301 404.36 0.745293 -0.345991 0.569938
23.178 52.3131 404.547 0.712831 -0.367394 0.597406
23.0402 52.3141 404.731 0.773652 -0.430734 0.464683
22.9818 52.2978 404.909 0.732256 -0.424541 0.53251
22.8051 52.3073 405.096 0.650497 -0.414086 0.636699
22.6498 52.3121 405.281 0.670215 -0.527453 0.522117
22.5329 52.3085 405.464 0.656694 -0.523088 0.54326
22.3318 52.3232 405.654 0.604202 -0.386707 0.696705
22.0911 52.3466 405.846 0.556927 -0.355649 0.750564
21.8346 52.3734 406.04 0.540426 -0.420927 0.728533
21.6187 52.3913 406.231 0.49731 -0.452112 0.740458
21.3392 52.423 406.427 0.465542 -0.491692 0.735873
21.066 52.4533 406.623 0.45991 -0.461206 0.758796
20.742 52.4946 406.824 0.41821 -0.441663 0.793747
20.4086 52.5379 407.025 0.387244 -0.494057 0.778428
20.0475 52.5872 407.229 0.374554 -0.477729 0.79466
19.7127 52.6308 407.431 0.325641 -0.457657 0.82735
19.2247 52.7075 407.646 0.277587 -0.466556 0.839804
12.9033 53.9313 409.05 0.359449 -0.622055 0.695589
12.5515 53.9779 409.258 0.455374 -0.511139 0.728952
12.2917 54.0044 409.458 0.48948 -0.44067 0.752476
12.0379 54.0296 409.659 0.485664 -0.495532 0.720124
11.8232 54.0463 409.856 0.471563 -0.611823 0.63506
11.5134 54.0836 410.062 0.511271 -0.612652 0.60271
11.325 54.0945 410.257 0.561107 -0.497709 0.661396
11.1059 54.1121 410.456 0.555058 -0.539875 0.632808
10.904 54.126 410.653 0.517885 -0.578472 0.63021
10.6989 54.1405 410.85 0.486983 -0.607992 0.627051
10.461 54.162 411.051 0.458545 -0.623777 0.63296
10.1597 54.1972 411.257 0.459528 -0.591522 0.662522
9.94607 54.2135 411.456 0.473531 -0.582216 0.660903
9.68282 54.2404 411.66 0.455268 -0.559284 0.692772
9.45088 54.2606 411.861 0.431179 -0.564997 0.703465
9.11614 54.3029 412.072 0.378749 -0.575657 0.724685
8.70016 54.3626 412.29 0.33693 -0.595344 0.729414
8.40711 54.3958 412.498 0.30844 -0.605884 0.733328
25.0932 53.4681 396.154 0.97613 0.201657 0.0806518
25.1139 53.4342 396.325 0.979727 0.0585538 -0.191588
25.1583 53.3925 396.495 0.979443 0.0425015 -0.197194
25.1907 53.3592 396.666 0.990383 0.0215662 -0.136659
25.2107 53.3282 396.838 0.995554 0.0347147 -0.0875587
25.231 53.2914 397.009 0.994942 0.023538 -0.0976573
25.2418 53.2617 397.181 0.99294 0.0471684 -0.108835
25.2611 53.2301 397.353 0.992949 0.0817929 -0.085798
25.2796 53.1912 397.523 0.996102 0.0763922 -0.044093
25.2885 53.1606 397.695 0.999388 0.0247648 -0.0246947
25.2887 53.1289 397.867 0.999986 -0.00433506 0.00298644
25.2876 53.0995 398.039 0.999256 -0.000502332 0.0385645
25.2716 53.0779 398.214 0.995852 -0.00251945 0.090955
25.2485 53.0557 398.388 0.993066 0.00856602 0.117246
25.2362 53.0288 398.561 0.995808 0.0131327 0.0905208
25.2106 53.0036 398.734 0.993572 0.0326434 0.108391
25.1962 52.9755 398.907 0.994108 0.0112045 0.107818
25.1889 52.9465 399.08 0.996192 -0.0491319 0.0720289
25.1728 52.9231 399.254 0.993173 -0.0513833 0.104725
25.1466 52.8998 399.428 0.985001 -0.0430912 0.167079
25.1174 52.879 399.603 0.984579 -0.0636829 0.162935
25.0855 52.8579 399.777 0.987977 -0.0592991 0.142773
25.0585 52.8343 399.951 0.989159 -0.0512655 0.137609
25.0393 52.809 400.125 0.97767 -0.0624068 0.200664
24.9899 52.7917 400.301 0.969283 -0.0794069 0.232778
24.954 52.7696 400.476 0.969095 -0.0952665 0.227548
24.9048 52.7518 400.651 0.960728 -0.108443 0.255425
24.8567 52.733 400.827 0.957951 -0.151098 0.243924
24.8222 52.7115 401.002 0.961589 -0.19194 0.196229
24.7871 52.6931 401.178 0.959427 -0.175459 0.220714
24.7258 52.6721 401.353 0.957813 -0.165933 0.234652
24.7081 52.649 401.528 0.940962 -0.221182 0.256259
24.6234 52.6378 401.706 0.925892 -0.222892 0.305029
24.5604 52.6238 401.883 0.937508 -0.159032 0.309496
24.5084 52.6061 402.06 0.925037 -0.17156 0.338931
24.4246 52.5929 402.237 0.938291 -0.188411 0.290019
24.367 52.576 402.414 0.911772 -0.141558 0.38553
24.2761 52.5658 402.593 0.883668 -0.173 0.434973
24.2197 52.5534 402.771 0.883791 -0.256615 0.391232
24.1359 52.5394 402.95 0.882863 -0.307288 0.355143
24.0674 52.528 403.128 0.897553 -0.30716 0.316308
23.9842 52.5181 403.307 0.906279 -0.285737 0.311469
23.9396 52.4964 403.483 0.86269 -0.306432 0.402326
23.8079 52.4986 403.666 0.836215 -0.294174 0.462823
23.7362 52.4853 403.844 0.853076 -0.30385 0.42419
23.6358 52.4778 404.025 0.831003 -0.306543 0.464183
23.5268 52.4731 404.206 0.827996 -0.281644 0.48487
23.4094 52.4698 404.388 0.761446 -0.333936 0.555597
23.2798 52.4691 404.571 0.732675 -0.382948 0.562618
23.174 52.4632 404.753 0.774396 -0.431069 0.463132
23.03 52.4657 404.937 0.744909 -0.404001 0.530937
22.8851 52.4683 405.122 0.717631 -0.367635 0.591482
22.7589 52.4655 405.305 0.728292 -0.389021 0.56414
22.5898 52.4747 405.492 0.671224 -0.327841 0.664815
22.3547 52.497 405.683 0.616764 -0.314974 0.721383
22.177 52.5067 405.871 0.58596 -0.370149 0.720861
21.9602 52.525 406.062 0.551075 -0.458585 0.697149
21.7463 52.5426 406.253 0.519024 -0.464727 0.717386
21.4733 52.573 406.449 0.479013 -0.426119 0.767444
21.1554 52.6132 406.648 0.474128 -0.430057 0.76828
20.9139 52.6367 406.842 0.443849 -0.45423 0.772446
20.5813 52.68 407.043 0.393769 -0.47183 0.788874
20.2083 52.732 407.248 0.3831 -0.478558 0.790074
19.84 52.783 407.453 0.352617 -0.436739 0.827599
19.3736 52.8553 407.666 0.320579 -0.392695 0.861986
13.0599 54.0806 409.069 0.354391 -0.489121 0.796974
12.6906 54.1311 409.279 0.396555 -0.56492 0.723609
12.3966 54.1652 409.482 0.45835 -0.571205 0.680912
12.1464 54.1898 409.682 0.514597 -0.555196 0.653412
11.9438 54.204 409.879 0.486681 -0.555353 0.674333
11.6714 54.2333 410.081 0.468794 -0.575607 0.670006
11.4179 54.2584 410.282 0.539772 -0.585235 0.605101
11.2588 54.2632 410.475 0.588113 -0.534689 0.606821
11.0722 54.2738 410.671 0.550695 -0.564009 0.615328
10.8431 54.2936 410.871 0.543512 -0.535107 0.646727
10.6378 54.3082 411.068 0.505999 -0.497784 0.704398
10.3561 54.3394 411.273 0.469484 -0.55348 0.687927
10.0903 54.367 411.477 0.478468 -0.566263 0.67113
9.8146 54.3968 411.681 0.473275 -0.545507 0.691688
9.52017 54.4306 411.888 0.477702 -0.523813 0.70528
9.29789 54.4487 412.089 0.447903 -0.479152 0.754848
9.02419 54.478 412.294 0.378844 -0.542818 0.74955
8.58902 54.542 412.514 0.334216 -0.605651 0.72214
8.25324 54.5846 412.726 0.295393 -0.534273 0.79202
25.0809 53.6516 396.186 0.985972 0.0851637 -0.14355
25.113 53.6127 396.356 0.976271 0.0561987 -0.209135
25.171 53.5698 396.525 0.976997 0.0241127 -0.211887
25.188 53.5388 396.697 0.993109 0.0245588 -0.114592
25.2008 53.5015 396.868 0.994124 0.0421906 -0.0996903
25.2222 53.4702 397.04 0.996645 0.0382942 -0.0723311
25.2247 53.4366 397.211 0.996637 0.043628 -0.0693663
25.2454 53.4051 397.383 0.993383 0.0772625 -0.0849754
25.2562 53.3748 397.555 0.991469 0.0934628 -0.0908557
25.2936 53.3376 397.726 0.996404 0.0741782 -0.0409385
25.2842 53.3111 397.898 0.998904 0.0418181 0.0210358
25.2847 53.2803 398.071 0.998594 0.0203175 0.0489596
25.2697 53.2533 398.244 0.994413 -0.0163019 0.104296
25.2492 53.2281 398.417 0.993168 -0.0349452 0.111341
25.2241 53.2099 398.593 0.993673 -0.00471001 0.112212
25.2088 53.1831 398.766 0.996519 0.0054989 0.0831878
25.2072 53.1537 398.938 0.99899 -0.0271362 0.035818
25.2027 53.1246 399.111 0.995881 -0.0494728 0.0759853
25.1728 53.1004 399.284 0.991381 -0.038568 0.125201
25.1537 53.0766 399.458 0.98838 -0.0409196 0.14639
25.1214 53.055 399.633 0.984219 -0.0668162 0.163854
25.0926 53.032 399.807 0.986055 -0.0775111 0.147268
25.0689 53.0086 399.981 0.98889 -0.0602429 0.135897
25.0375 52.986 400.156 0.980411 -0.0441616 0.191948
24.9967 52.9658 400.331 0.973955 -0.0552342 0.219909
24.9598 52.9459 400.506 0.972069 -0.0801537 0.220582
24.9161 52.9265 400.682 0.971816 -0.0983733 0.214235
24.8938 52.8986 400.855 0.969487 -0.140699 0.200746
24.8417 52.8833 401.031 0.962184 -0.159797 0.220608
24.7905 52.8651 401.207 0.962285 -0.133153 0.23723
24.7546 52.848 401.384 0.973275 -0.131181 0.188488
24.722 52.824 401.558 0.954559 -0.11588 0.274569
24.6453 52.8131 401.736 0.919189 -0.127663 0.372551
24.5753 52.8042 401.914 0.937854 -0.178667 0.297502
24.5224 52.7809 402.089 0.930529 -0.183205 0.317098
24.4568 52.7705 402.267 0.926809 -0.1369 0.349692
24.3876 52.7559 402.446 0.921117 -0.131355 0.366456
24.3145 52.7431 402.624 0.915047 -0.174745 0.363528
24.2425 52.7263 402.801 0.916817 -0.177662 0.357606
24.1662 52.7164 402.98 0.911651 -0.169874 0.374213
24.0927 52.7013 403.157 0.914119 -0.200644 0.352318
24.0322 52.6855 403.335 0.919927 -0.249291 0.302637
23.9699 52.6725 403.513 0.873223 -0.237844 0.425337
23.8492 52.6677 403.694 0.855083 -0.228728 0.465314
23.7742 52.6551 403.873 0.869978 -0.234595 0.433708
23.6524 52.6532 404.055 0.838988 -0.221524 0.497017
23.5483 52.6466 404.236 0.856574 -0.262642 0.444185
23.4947 52.6293 404.413 0.785268 -0.338915 0.518161
23.3098 52.6409 404.601 0.753601 -0.377953 0.537808
23.2065 52.6345 404.782 0.790779 -0.35635 0.497678
23.0943 52.63 404.964 0.742876 -0.364818 0.561287
22.9417 52.6344 405.149 0.733029 -0.348936 0.583877
22.7822 52.6417 405.334 0.729372 -0.298846 0.615393
22.6183 52.6472 405.521 0.659078 -0.362277 0.659068
22.4589 52.653 405.707 0.611452 -0.429066 0.664853
22.2477 52.6701 405.897 0.602612 -0.463674 0.649512
22.079 52.6779 406.085 0.552622 -0.480979 0.680638
21.802 52.7094 406.28 0.521445 -0.436274 0.733321
21.5614 52.7329 406.473 0.49602 -0.383129 0.779215
21.2585 52.77 406.672 0.503653 -0.396225 0.767684
21.0214 52.7926 406.865 0.483049 -0.406994 0.775254
20.6779 52.8385 407.067 0.435601 -0.36404 0.823242
20.3508 52.8807 407.268 0.415103 -0.36489 0.833393
19.9556 52.9378 407.475 0.373917 -0.347631 0.859848
19.4939 53.0093 407.688 0.3369 -0.35445 0.872275
13.2361 54.2255 409.087 0.300406 -0.641823 0.705564
12.9149 54.2657 409.293 0.390464 -0.538396 0.746772
12.5565 54.314 409.502 0.422912 -0.595475 0.683048
12.3283 54.3339 409.7 0.463554 -0.66329 0.587507
12.1139 54.3508 409.897 0.477796 -0.602541 0.639262
11.8475 54.3789 410.099 0.469783 -0.535609 0.701731
11.5619 54.4112 410.303 0.532714 -0.528488 0.660996
11.3504 54.4274 410.5 0.582242 -0.593362 0.555801
11.1991 54.4304 410.693 0.554117 -0.534427 0.638234
10.9163 54.462 410.897 0.549272 -0.508259 0.663305
10.74 54.4705 411.093 0.533124 -0.520836 0.666715
10.4811 54.4968 411.295 0.478906 -0.538036 0.693662
10.2327 54.5209 411.497 0.47705 -0.554629 0.68177
9.98406 54.5449 411.7 0.447293 -0.578185 0.682372
9.70612 54.5753 411.905 0.437983 -0.587014 0.680871
9.38668 54.6146 412.114 0.475175 -0.541914 0.693209
9.13521 54.6391 412.317 0.442237 -0.498587 0.745545
8.85527 54.6698 412.523 0.36521 -0.524743 0.768939
8.39091 54.7404 412.747 0.311338 -0.563086 0.765508
25.044 53.865 396.045 0.974183 0.154195 -0.164901
25.0717 53.8279 396.216 0.978724 0.0952285 -0.181742
25.1208 53.7869 396.386 0.968506 0.0777843 -0.236527
25.1605 53.7484 396.556 0.979731 0.0840581 -0.181828
25.1852 53.7142 396.727 0.994383 0.0601431 -0.0870894
25.1985 53.6821 396.899 0.994168 0.0422177 -0.0992409
25.2249 53.6492 397.071 0.996999 0.038911 -0.0669194
25.2253 53.6186 397.243 0.998953 0.0176598 -0.0421903
25.2326 53.5871 397.415 0.996549 0.021658 -0.0801288
25.2517 53.555 397.587 0.992461 0.0535642 -0.110234
25.2678 53.5211 397.758 0.994658 0.0830422 -0.0613217
25.2766 53.49 397.93 0.998184 0.059832 0.00695865
25.2789 53.4603 398.102 0.999238 0.0316361 0.0228715
25.279 53.4311 398.275 0.995722 0.0138952 0.0913453
25.2522 53.4087 398.449 0.989374 -0.00406267 0.145338
25.2219 53.385 398.623 0.992997 0.00564622 0.118005
25.2107 53.3577 398.796 0.999213 -0.00640835 0.039133
25.2109 53.3294 398.968 0.999722 -0.000138851 0.0235828
25.2001 53.3062 399.143 0.993953 0.0273192 0.106356
25.1737 53.2807 399.316 0.990999 0.01067 0.133441
25.1568 53.2576 399.49 0.991745 -0.0140705 0.127451
25.1348 53.2301 399.663 0.98726 -0.0295697 0.156344
25.1051 53.2086 399.838 0.984435 -0.0628555 0.164125
25.065 53.1894 400.013 0.985684 -0.0345305 0.165028
25.0406 53.1638 400.187 0.981361 0.00549244 0.192094
25.0009 53.146 400.363 0.979492 -0.0381353 0.197842
24.9734 53.1209 400.536 0.974894 -0.0979992 0.199945
24.9299 53.104 400.713 0.980355 -0.0959575 0.172327
24.9078 53.0764 400.886 0.978144 -0.0713647 0.1953
24.8586 53.0591 401.062 0.961814 -0.0984778 0.255374
24.8173 53.0407 401.237 0.964831 -0.120244 0.233759
24.7662 53.0207 401.413 0.969117 -0.113642 0.218853
24.718 53.0025 401.589 0.954882 -0.0992338 0.279916
24.6614 52.9795 401.765 0.934502 -0.165578 0.315102
24.6157 52.9671 401.942 0.9269 -0.242548 0.286404
24.5485 52.9509 402.119 0.907866 -0.221115 0.356211
24.4417 52.9379 402.297 0.920143 -0.170943 0.352299
24.401 52.9273 402.475 0.934199 -0.147932 0.324635
24.3275 52.9144 402.653 0.919977 -0.147166 0.363298
24.2566 52.9012 402.831 0.914279 -0.170689 0.367368
24.1799 52.889 403.01 0.922046 -0.176219 0.344642
24.1298 52.871 403.186 0.933204 -0.187959 0.306272
24.0683 52.8555 403.364 0.914156 -0.244199 0.323552
23.9856 52.8447 403.543 0.870436 -0.229674 0.43542
23.8823 52.8384 403.723 0.856962 -0.239316 0.456448
23.788 52.8271 403.902 0.861992 -0.239466 0.446794
23.696 52.8214 404.083 0.853892 -0.242113 0.460706
23.616 52.8099 404.263 0.876962 -0.307064 0.369661
23.5349 52.7987 404.442 0.81854 -0.28906 0.496423
23.407 52.7978 404.625 0.765021 -0.297841 0.570993
23.2765 52.7975 404.808 0.784052 -0.3955 0.478375
23.1692 52.7907 404.99 0.73388 -0.370429 0.569388
22.9739 52.8059 405.178 0.7168 -0.320643 0.619182
22.8518 52.8036 405.361 0.73676 -0.398355 0.546349
22.7525 52.7964 405.542 0.662344 -0.465881 0.586733
22.5315 52.8158 405.733 0.619586 -0.45623 0.638723
22.3809 52.8198 405.919 0.623062 -0.462806 0.630559
22.1821 52.8343 406.108 0.566398 -0.40731 0.716444
21.9151 52.8636 406.304 0.533262 -0.341378 0.774011
21.6417 52.8945 406.499 0.507105 -0.360851 0.782708
21.3385 52.9318 406.697 0.513093 -0.39398 0.762571
21.1087 52.953 406.89 0.493724 -0.341969 0.799559
20.7338 53.0059 407.095 0.45109 -0.323743 0.83169
20.4195 53.0455 407.295 0.425309 -0.332494 0.84176
19.9966 53.1088 407.504 0.39241 -0.314251 0.864442
19.6341 53.1588 407.709 0.362961 -0.330202 0.871336
12.9702 54.437 409.321 0.393411 -0.547431 0.738612
12.8187 54.4404 409.512 0.448886 -0.562896 0.69401
12.4588 54.4891 409.722 0.497773 -0.542394 0.676779
12.2784 54.4987 409.916 0.503874 -0.492307 0.70975
11.9098 54.5492 410.126 0.467822 -0.493812 0.733002
11.6904 54.5673 410.325 0.539125 -0.544987 0.642131
11.5345 54.5714 410.517 0.57773 -0.565873 0.588231
11.2998 54.5927 410.717 0.55304 -0.513621 0.656003
11.0925 54.6081 410.915 0.530841 -0.568396 0.628597
10.8921 54.6218 411.112 0.522676 -0.593485 0.612034
10.6729 54.6397 411.311 0.500193 -0.507394 0.701682
10.3681 54.6761 411.518 0.510544 -0.529192 0.677718
10.1946 54.684 411.714 0.473041 -0.539613 0.696455
9.82175 54.7351 411.927 0.441332 -0.516027 0.734127
9.57889 54.7579 412.13 0.466475 -0.544036 0.697442
9.3025 54.788 412.335 0.461623 -0.549516 0.696374
9.01123 54.8213 412.542 0.414756 -0.497851 0.761657
8.69996 54.8589 412.752 0.322206 -0.522275 0.789565
8.10898 54.9571 412.987 0.291483 -0.531378 0.795409
24.9695 54.087 395.907 0.948036 0.289457 -0.132071
25.0144 54.0476 396.077 0.958157 0.183478 -0.219707
25.0679 54.0048 396.246 0.971739 0.123241 -0.201334
25.0988 53.9701 396.418 0.971951 0.0836531 -0.219803
25.1466 53.9302 396.588 0.975435 0.126257 -0.180514
25.1799 53.8943 396.759 0.99021 0.0974528 -0.099935
25.1909 53.8633 396.931 0.993806 0.0606823 -0.093104
25.2125 53.8277 397.102 0.993988 0.078308 -0.0765186
25.2271 53.795 397.273 0.996711 0.0735223 -0.0340731
25.2375 53.7638 397.446 0.997655 0.0498158 -0.0469337
25.2393 53.7341 397.618 0.996567 0.0383954 -0.07335
25.2579 53.7016 397.789 0.996112 0.0288964 -0.0832222
25.2757 53.6688 397.961 0.999422 0.0215617 -0.0262731
25.2676 53.6406 398.134 0.999467 0.028303 0.0162645
25.2653 53.6112 398.306 0.99438 0.0568169 0.089337
25.2383 53.5845 398.479 0.982918 0.0888996 0.161147
25.2162 53.5642 398.654 0.990996 0.0866784 0.102046
25.2164 53.5353 398.827 0.995795 0.0726943 0.0557492
25.1969 53.51 399 0.993176 0.0842187 0.0806795
25.1802 53.4817 399.173 0.991433 0.0818456 0.101789
25.1709 53.458 399.347 0.993545 0.0307962 0.109176
25.1497 53.4303 399.52 0.992805 0.00845424 0.119445
25.1269 53.4094 399.695 0.991486 0.0129672 0.12957
25.1116 53.3827 399.868 0.979425 0.00563413 0.201731
25.0538 53.3641 400.044 0.976319 0.0152797 0.215794
25.0241 53.3438 400.218 0.988623 0.0102833 0.150063
25.0129 53.3181 400.393 0.989705 -0.029134 0.140125
24.9891 53.2945 400.566 0.97566 -0.0930989 0.198543
24.9339 53.2766 400.742 0.973869 -0.110895 0.198197
24.9032 53.2555 400.917 0.981014 -0.0790731 0.177086
24.8722 53.2332 401.092 0.967784 -0.100362 0.230913
24.8175 53.2109 401.267 0.965042 -0.108872 0.238413
24.7818 53.1955 401.443 0.963071 -0.122019 0.240012
24.7321 53.1793 401.62 0.961045 -0.17732 0.212012
24.7183 53.1575 401.795 0.947617 -0.215563 0.235701
24.6439 53.1386 401.971 0.925328 -0.204853 0.319066
24.5734 53.1252 402.149 0.898647 -0.173321 0.40298
24.4889 53.1204 402.329 0.910857 -0.191543 0.365583
24.4238 53.0995 402.505 0.92715 -0.184958 0.325859
24.3418 53.0893 402.683 0.927729 -0.144779 0.344033
24.2963 53.0703 402.86 0.916449 -0.175744 0.359494
24.2 53.0625 403.039 0.923517 -0.201302 0.326488
24.1586 53.0426 403.215 0.9443 -0.211735 0.251924
24.1072 53.025 403.392 0.902453 -0.261769 0.342133
24.0171 53.0158 403.572 0.863356 -0.277618 0.421361
23.9308 53.0059 403.751 0.844486 -0.29492 0.447063
23.8234 53.005 403.933 0.849221 -0.297513 0.436244
23.7345 52.9889 404.112 0.877087 -0.262916 0.401988
23.6528 52.98 404.291 0.881674 -0.253714 0.397844
23.5599 52.9715 404.472 0.82855 -0.264511 0.493496
23.4231 52.9727 404.655 0.805749 -0.31137 0.503803
23.3588 52.9577 404.834 0.788883 -0.353895 0.502415
23.1919 52.9667 405.019 0.724293 -0.325461 0.607845
23.0483 52.968 405.204 0.744463 -0.349183 0.569075
22.9495 52.9607 405.385 0.76724 -0.429812 0.47603
22.8076 52.9616 405.57 0.703458 -0.360583 0.612476
22.6333 52.9721 405.757 0.67016 -0.311043 0.673897
22.4441 52.9847 405.946 0.642646 -0.359048 0.676824
22.2166 53.0056 406.137 0.557681 -0.353159 0.75118
21.9317 53.0392 406.333 0.548312 -0.332354 0.767395
21.7351 53.0532 406.524 0.524242 -0.347971 0.77723
21.4283 53.0914 406.722 0.493051 -0.395131 0.775095
21.1356 53.1266 406.92 0.488902 -0.351136 0.798547
20.841 53.162 407.118 0.457151 -0.327366 0.826949
20.4927 53.2092 407.321 0.424707 -0.325874 0.844648
20.1084 53.2643 407.527 0.393517 -0.346219 0.851632
19.6868 53.3274 407.737 0.377992 -0.359768 0.853047
13.2155 54.5668 409.333 0.386069 -0.536628 0.750321
12.8832 54.6097 409.54 0.42875 -0.557344 0.711014
12.5553 54.6516 409.746 0.513388 -0.449507 0.731011
12.3743 54.6615 409.94 0.51669 -0.48834 0.703247
12.1071 54.6901 410.142 0.461285 -0.512687 0.724133
11.8273 54.7214 410.346 0.524232 -0.571753 0.631094
11.6065 54.7398 410.544 0.5859 -0.512752 0.62754
11.423 54.7501 410.739 0.577072 -0.531403 0.62016
11.2525 54.7575 410.934 0.566644 -0.524383 0.63556
11.0003 54.7826 411.136 0.555827 -0.451007 0.698319
10.734 54.8109 411.339 0.527139 -0.456635 0.716665
10.512 54.8294 411.539 0.525084 -0.534884 0.661956
10.2847 54.8491 411.739 0.490545 -0.501123 0.712911
9.98801 54.8838 411.946 0.462269 -0.471815 0.750798
9.69855 54.9169 412.152 0.49302 -0.49233 0.717316
9.43011 54.9454 412.357 0.473986 -0.509243 0.718337
9.15012 54.9764 412.563 0.444577 -0.546431 0.709764
8.87234 55.0069 412.769 0.360569 -0.462534 0.809971
8.39328 55.0811 412.994 0.303584 -0.464778 0.831756
7.97442 55.1421 413.214 0.274452 -0.536552 0.79799
24.9322 54.273 395.939 0.935458 0.216188 -0.27961
24.984 54.2324 396.109 0.941713 0.197147 -0.272599
25.066 54.1833 396.277 0.962125 0.121962 -0.243807
25.0927 54.1507 396.449 0.981671 0.0883517 -0.168869
25.1176 54.1143 396.62 0.972553 0.122903 -0.197575
25.1694 54.0734 396.79 0.979919 0.156048 -0.124127
25.182 54.0421 396.962 0.992709 0.102219 -0.0638805
25.1944 54.0076 397.133 0.994758 0.0690093 -0.0754594
25.2072 53.9775 397.305 0.994396 0.0884202 -0.0579531
25.2208 53.9451 397.477 0.995191 0.079024 -0.0578766
25.2451 53.9125 397.649 0.995474 0.0456519 -0.0833469
25.264 53.8762 397.819 0.996089 0.0406927 -0.0784275
25.2682 53.8463 397.992 0.999138 0.0406711 -0.00837158
25.2649 53.8209 398.165 0.994644 0.0778665 0.067972
25.2401 53.7948 398.339 0.982832 0.114535 0.144649
25.204 53.7746 398.513 0.985229 0.0880362 0.146878
25.1932 53.7469 398.686 0.992373 0.0936871 0.0801143
25.1788 53.7255 398.861 0.988813 0.125669 0.0803443
25.1698 53.6967 399.034 0.991009 0.103188 0.0851625
25.168 53.6662 399.206 0.996699 0.0649204 0.0487483
25.17 53.6352 399.378 0.994652 0.0473416 0.0917958
25.1398 53.6095 399.551 0.989926 0.0526508 0.131429
25.1264 53.5871 399.726 0.989177 0.0470929 0.138965
25.0834 53.5704 399.902 0.975448 0.0377519 0.21697
25.0475 53.5479 400.076 0.979775 0.0186031 0.199233
25.0316 53.5209 400.25 0.993981 -0.0410316 0.101582
25.0134 53.4939 400.423 0.994592 -0.0641344 0.0816954
25.0027 53.4689 400.597 0.980514 -0.0699064 0.183592
24.9553 53.4518 400.772 0.966826 -0.125406 0.222531
24.917 53.4315 400.948 0.974721 -0.164282 0.151425
24.8932 53.4063 401.122 0.964204 -0.152657 0.216812
24.8317 53.3918 401.299 0.966462 -0.124869 0.224407
24.81 53.3655 401.473 0.974691 -0.128589 0.182874
24.7751 53.3453 401.648 0.969375 -0.169929 0.177303
24.7318 53.3257 401.824 0.951416 -0.163103 0.261162
24.6577 53.3131 402.001 0.92075 -0.13861 0.3647
24.5872 53.3013 402.179 0.910375 -0.146721 0.3869
24.5023 53.2897 402.358 0.912967 -0.16872 0.371517
24.4376 53.275 402.535 0.915683 -0.164374 0.366749
24.355 53.2622 402.713 0.935284 -0.161363 0.314971
24.3147 53.2416 402.889 0.924321 -0.189669 0.331143
24.2297 53.2339 403.069 0.919016 -0.252574 0.302681
24.2024 53.2109 403.244 0.941851 -0.268016 0.202694
24.1487 53.1936 403.421 0.914068 -0.223534 0.338397
24.0668 53.1829 403.6 0.87938 -0.233885 0.414714
23.9762 53.1739 403.78 0.857416 -0.243684 0.453273
23.8723 53.1679 403.96 0.849468 -0.236159 0.47184
23.7634 53.1651 404.142 0.886162 -0.198506 0.418702
23.6928 53.1495 404.32 0.891996 -0.210687 0.399943
23.6068 53.1394 404.5 0.848594 -0.266449 0.457049
23.5232 53.1235 404.679 0.816265 -0.340181 0.466892
23.3865 53.13 404.863 0.788471 -0.317736 0.526648
23.2672 53.1273 405.046 0.742665 -0.295833 0.600776
23.1047 53.1341 405.231 0.777236 -0.361542 0.514967
23.0199 53.1238 405.412 0.775108 -0.324777 0.541966
22.8298 53.1379 405.6 0.706141 -0.268319 0.655263
22.6546 53.1463 405.787 0.705464 -0.274887 0.653267
22.5135 53.1483 405.972 0.660908 -0.323116 0.677345
22.3223 53.1613 406.161 0.546223 -0.363497 0.754659
22.0259 53.1975 406.358 0.536706 -0.402875 0.741376
21.8103 53.2158 406.549 0.532184 -0.407483 0.742117
21.5256 53.2493 406.746 0.476891 -0.39025 0.787578
21.2204 53.2873 406.945 0.466628 -0.404367 0.786604
20.9019 53.3282 407.145 0.448179 -0.370815 0.813407
20.5459 53.3773 407.349 0.432058 -0.344648 0.833393
20.2195 53.4198 407.55 0.392377 -0.375174 0.839812
19.7974 53.4833 407.76 0.368981 -0.396884 0.840438
13.4313 54.7028 409.348 0.368767 -0.563821 0.738997
