-14.8081 51.1788 389.688 -0.697213 -0.377931 -0.609149
-14.6528 51.2427 389.512 -0.666855 -0.380635 -0.640641
-14.5323 51.2954 389.336 -0.646513 -0.356659 -0.6744
-14.3324 51.3738 389.16 -0.629567 -0.38066 -0.677306
-14.2322 51.42 388.984 -0.668336 -0.461034 -0.583759
-14.1131 51.4724 388.807 -0.633195 -0.36116 -0.684564
-13.9103 51.5518 388.631 -0.588165 -0.329501 -0.738574
-13.7445 51.6192 388.454 -0.595836 -0.416516 -0.686654
-13.603 51.6788 388.277 -0.60264 -0.396835 -0.692349
-13.4091 51.7554 388.101 -0.586594 -0.29465 -0.754379
-13.2354 51.8255 387.923 -0.602907 -0.278768 -0.747523
-13.0496 51.8994 387.746 -0.639956 -0.283621 -0.714154
-12.9201 51.9553 387.569 -0.617643 -0.354835 -0.701861
-12.7303 52.0306 387.391 -0.553472 -0.381238 -0.74049
-12.535 52.1077 387.213 -0.533752 -0.355842 -0.767128
-12.3466 52.1827 387.035 -0.551163 -0.323761 -0.769024
-12.1502 52.2602 386.857 -0.546939 -0.336685 -0.766486
-11.9265 52.3465 386.678 -0.54025 -0.359875 -0.760671
-11.7178 52.4281 386.499 -0.552667 -0.357256 -0.752946
-11.5394 52.4999 386.321 -0.538218 -0.357695 -0.763135
-11.3673 52.5696 386.142 -0.533212 -0.40198 -0.744377
-9.69901 52.1574 400.806 -0.74127 -0.263746 0.617217
-9.84693 52.1235 400.622 -0.753678 -0.299683 0.584943
-9.98022 52.0944 400.439 -0.735645 -0.370542 0.567032
-10.0914 52.0723 400.257 -0.716183 -0.298959 0.630639
-10.2489 52.0318 400.073 -0.745719 -0.229102 0.625632
-10.3911 52.0033 399.89 -0.728809 -0.291183 0.619718
-10.5531 51.965 399.707 -0.700766 -0.314829 0.640164
-13.2737 51.2276 397.851 -0.514767 -0.382898 0.767075
-13.4817 51.1744 397.669 -0.537003 -0.400252 0.74258
-13.6973 51.1187 397.486 -0.533347 -0.376969 0.757255
-13.8997 51.0672 397.304 -0.639132 -0.331439 0.694016
-14.0647 51.0278 397.123 -0.693885 -0.379189 0.612159
-14.2106 50.9945 396.943 -0.680831 -0.472362 0.55977
-14.3096 50.9763 396.764 -0.673152 -0.450543 0.586411
-14.458 50.9422 396.584 -0.694721 -0.431187 0.575709
-14.57 50.9197 396.405 -0.673987 -0.456974 0.580445
-14.7355 50.8801 396.225 -0.671196 -0.408655 0.618463
-14.868 50.851 396.046 -0.761601 -0.347636 0.546913
-14.9704 50.8318 395.868 -0.732214 -0.339113 0.590648
-15.1345 50.7926 395.688 -0.736388 -0.393477 0.550371
-15.2158 50.78 395.51 -0.749161 -0.450652 0.48546
-15.3359 50.755 395.332 -0.763904 -0.468117 0.444203
-15.401 50.7491 395.155 -0.762289 -0.471014 0.443917
-15.4982 50.73 394.977 -0.769479 -0.433748 0.468791
-15.6029 50.7076 394.799 -0.820076 -0.422965 0.385454
-15.6745 50.7061 394.622 -0.835673 -0.440664 0.327819
-15.7375 50.6971 394.445 -0.851586 -0.439834 0.285213
-15.7729 50.6961 394.269 -0.880867 -0.402891 0.248501
-15.8178 50.696 394.092 -0.90405 -0.351974 0.242503
-15.8845 50.6946 393.915 -0.88868 -0.398638 0.226572
-15.9252 50.688 393.739 -0.862806 -0.467258 0.192963
-15.9595 50.6906 393.563 -0.882165 -0.454296 0.124093
-15.9665 50.702 393.387 -0.899264 -0.435582 0.0399077
-15.9785 50.7118 393.211 -0.878784 -0.467086 0.0978203
-16.0277 50.7099 393.035 -0.874926 -0.472009 0.108227
-16.0339 50.7211 392.859 -0.898696 -0.43646 0.0429812
-16.0407 50.7328 392.683 -0.903371 -0.42885 -0.00285044
-16.0404 50.7463 392.508 -0.888123 -0.456489 -0.0534429
-16.0344 50.7622 392.332 -0.874597 -0.447076 -0.187626
-15.9903 50.7904 392.156 -0.849499 -0.437421 -0.294982
-15.9389 50.8192 391.981 -0.843613 -0.470148 -0.259381
-15.9114 50.8431 391.806 -0.851903 -0.413321 -0.3216
-15.8612 50.876 391.63 -0.818446 -0.415848 -0.396506
-15.7707 50.9159 391.456 -0.813371 -0.473033 -0.338625
-15.7213 50.9481 391.28 -0.847258 -0.397516 -0.352329
-15.667 50.9732 391.105 -0.826837 -0.375587 -0.418659
-15.5837 51.0175 390.929 -0.815261 -0.399302 -0.419412
-15.539 51.0458 390.754 -0.784818 -0.38355 -0.486775
-15.4011 51.1041 390.579 -0.751145 -0.370512 -0.546353
-15.3166 51.1475 390.403 -0.777354 -0.318195 -0.542654
-15.2078 51.1941 390.228 -0.751689 -0.364797 -0.549442
-15.1202 51.2362 390.052 -0.703588 -0.439186 -0.558641
-15.0008 51.292 389.876 -0.696321 -0.485038 -0.529032
-14.9029 51.3341 389.701 -0.671916 -0.447583 -0.590084
-14.7619 51.3935 389.525 -0.667575 -0.371565 -0.6452
-14.6285 51.4505 389.349 -0.681183 -0.319484 -0.658726
-14.5137 51.5014 389.173 -0.642127 -0.396021 -0.656384
-14.3564 51.5662 388.997 -0.659633 -0.420043 -0.623257
-14.2097 51.6275 388.82 -0.674669 -0.272068 -0.686149
-14.0635 51.6887 388.644 -0.637601 -0.300101 -0.70951
-13.919 51.7493 388.467 -0.611315 -0.365209 -0.70208
-13.7183 51.8282 388.291 -0.592147 -0.334376 -0.733181
-13.5402 51.8997 388.114 -0.563423 -0.318847 -0.762162
-13.3027 51.9905 387.937 -0.56599 -0.341167 -0.750507
-13.1412 52.0567 387.759 -0.636938 -0.378805 -0.671429
-13.0187 52.1103 387.582 -0.651064 -0.365939 -0.664984
-12.8735 52.1713 387.404 -0.583986 -0.311628 -0.749566
-12.651 52.2574 387.226 -0.545909 -0.286671 -0.787276
-12.4046 52.3511 387.048 -0.58186 -0.271185 -0.766745
-12.2424 52.4177 386.87 -0.588206 -0.273695 -0.760989
-12.0451 52.4956 386.692 -0.555151 -0.316598 -0.769138
-11.8664 52.5676 386.513 -0.531653 -0.408962 -0.741684
-11.6684 52.6458 386.334 -0.536558 -0.402163 -0.74187
-11.4546 52.7291 386.155 -0.521937 -0.34137 -0.781696
-9.74516 52.331 400.819 -0.686472 -0.37223 0.62466
-9.91924 52.2887 400.635 -0.689035 -0.376414 0.619309
-10.051 52.26 400.452 -0.757918 -0.394773 0.51934
-10.1275 52.249 400.27 -0.732525 -0.360357 0.577538
-10.3046 52.2093 400.086 -0.68946 -0.309047 0.655084
-10.4604 52.1692 399.903 -0.696194 -0.341096 0.631639
-10.5979 52.1386 399.72 -0.649264 -0.367005 0.666156
-12.5879 51.5941 398.416 -0.439853 -0.356023 0.824486
-12.8856 51.512 398.23 -0.425262 -0.400734 0.81152
-13.1425 51.4429 398.046 -0.45472 -0.402692 0.794398
-13.3895 51.377 397.862 -0.50645 -0.396954 0.765464
-13.6004 51.3227 397.68 -0.52968 -0.438287 0.726184
-13.7909 51.275 397.498 -0.54259 -0.450091 0.709235
-13.9685 51.2315 397.317 -0.590585 -0.416326 0.69129
-14.1465 51.1878 397.136 -0.646562 -0.381456 0.660643
-14.305 51.1503 396.955 -0.718418 -0.412285 0.560265
-14.4008 51.1331 396.777 -0.697762 -0.428578 0.573977
-14.5788 51.0893 396.596 -0.677791 -0.43112 0.595596
-14.6932 51.0661 396.417 -0.692978 -0.465205 0.550787
-14.7998 51.0453 396.238 -0.696681 -0.450413 0.558358
-14.8996 51.0269 396.06 -0.735792 -0.410742 0.538424
-15.0343 50.997 395.881 -0.687024 -0.388983 0.613751
-15.2007 50.957 395.701 -0.705112 -0.409576 0.578847
-15.3101 50.9353 395.523 -0.745287 -0.448035 0.493774
-15.4216 50.9116 395.344 -0.759718 -0.473446 0.445734
-15.5015 50.9009 395.167 -0.763727 -0.500278 0.407975
-15.6028 50.8818 394.989 -0.756416 -0.484027 0.439946
-15.667 50.8692 394.812 -0.796332 -0.462992 0.389222
-15.7462 50.8597 394.635 -0.829108 -0.457085 0.321952
-15.7967 50.8624 394.458 -0.879626 -0.405817 0.248132
-15.8431 50.8581 394.281 -0.884236 -0.424752 0.194195
-15.8684 50.8574 394.105 -0.83915 -0.469971 0.273779
-15.9566 50.8496 393.928 -0.830224 -0.478443 0.286041
-15.9936 50.8474 393.752 -0.866529 -0.465955 0.178925
-16.0277 50.8537 393.575 -0.892912 -0.437085 0.108002
-16.0494 50.8574 393.4 -0.885835 -0.458424 0.0717175
-16.0814 50.8637 393.223 -0.861664 -0.497475 0.100269
-16.0851 50.8764 393.047 -0.884463 -0.461074 0.0716675
-16.0993 50.8855 392.872 -0.913009 -0.405975 0.0399878
-16.1203 50.8926 392.696 -0.911818 -0.409148 0.0344386
-16.1376 50.9008 392.52 -0.883469 -0.466175 -0.0465198
-16.1196 50.9197 392.345 -0.847954 -0.499136 -0.178431
-16.0887 50.9398 392.169 -0.831531 -0.486238 -0.268567
-16.0498 50.9682 391.994 -0.810768 -0.498265 -0.307226
-15.9778 51.0099 391.819 -0.828564 -0.471973 -0.301204
-15.941 51.0302 391.643 -0.835285 -0.420437 -0.354305
-15.8824 51.0616 391.468 -0.804291 -0.427445 -0.412804
-15.8011 51.109 391.293 -0.806621 -0.469559 -0.358993
-15.7506 51.1354 391.118 -0.796633 -0.45694 -0.395703
-15.669 51.1756 390.942 -0.78913 -0.453489 -0.414271
-15.5964 51.2128 390.767 -0.784278 -0.393452 -0.479691
-15.5063 51.2557 390.592 -0.728316 -0.354627 -0.586341
-15.3555 51.3183 390.416 -0.766789 -0.400342 -0.501758
-15.3301 51.338 390.24 -0.794117 -0.374971 -0.478304
-15.2067 51.3941 390.065 -0.761359 -0.371352 -0.531442
-15.1393 51.4297 389.889 -0.723683 -0.42705 -0.542136
-15.0068 51.483 389.714 -0.668099 -0.393422 -0.631557
-14.8461 51.5523 389.538 -0.646927 -0.355513 -0.674608
-14.6859 51.618 389.362 -0.692051 -0.399584 -0.601165
-14.6059 51.6578 389.186 -0.681906 -0.323061 -0.656228
-14.393 51.7406 389.01 -0.654962 -0.277575 -0.702835
-14.2656 51.7957 388.834 -0.664912 -0.350451 -0.659603
-14.113 51.859 388.657 -0.642391 -0.374959 -0.668386
-13.9657 51.9207 388.481 -0.638603 -0.290671 -0.712528
-13.7932 51.9905 388.304 -0.626335 -0.264061 -0.733468
-13.6364 52.0552 388.127 -0.583329 -0.294934 -0.756796
-13.4436 52.1316 387.95 -0.555942 -0.344545 -0.75645
-13.261 52.2048 387.773 -0.601823 -0.423987 -0.676789
-13.1102 52.2676 387.595 -0.624587 -0.413133 -0.662731
-12.9388 52.3372 387.418 -0.587151 -0.307802 -0.748673
-12.7282 52.4195 387.24 -0.53411 -0.27357 -0.799929
-12.5178 52.5017 387.062 -0.554606 -0.330216 -0.763786
-12.3422 52.5727 386.884 -0.58774 -0.344424 -0.732075
-12.1585 52.6464 386.705 -0.567483 -0.394857 -0.722531
-12.0087 52.709 386.527 -0.538071 -0.387612 -0.748489
-11.7621 52.8031 386.348 -0.532314 -0.370437 -0.761195
-11.6174 52.8642 386.169 -0.505622 -0.338171 -0.793717
-11.3182 52.9753 385.989 -0.495009 -0.359429 -0.791061
-9.86145 52.4822 400.83 -0.693886 -0.349758 0.629438
-9.9972 52.4521 400.647 -0.685678 -0.391549 0.613625
-10.1372 52.4206 400.464 -0.772112 -0.38981 0.501887
-10.2203 52.4074 400.282 -0.721797 -0.429305 0.542868
-10.3736 52.3717 400.099 -0.626592 -0.425553 0.652906
-10.5467 52.3296 399.915 -0.640597 -0.422439 0.641234
-10.7146 52.2891 399.731 -0.585696 -0.401766 0.703948
-12.6786 51.752 398.428 -0.450312 -0.272848 0.85016
-12.9875 51.6661 398.242 -0.465307 -0.322873 0.824161
-13.2252 51.6031 398.058 -0.481837 -0.378161 0.79046
-13.4807 51.5343 397.874 -0.495515 -0.395116 0.77353
-13.7123 51.4733 397.691 -0.55544 -0.377688 0.740836
-13.9073 51.424 397.51 -0.58874 -0.414932 0.693698
-14.0724 51.3844 397.329 -0.608267 -0.442066 0.659234
-14.2192 51.3506 397.148 -0.628099 -0.421471 0.654106
-14.3845 51.3109 396.968 -0.692939 -0.441649 0.569896
-14.484 51.2924 396.789 -0.68163 -0.450726 0.576391
-14.641 51.2553 396.609 -0.675325 -0.408547 0.614024
-14.7661 51.2286 396.429 -0.736217 -0.388835 0.553888
-14.9052 51.1973 396.25 -0.730296 -0.435492 0.526321
-15.0194 51.1741 396.071 -0.684011 -0.515934 0.515694
-15.1373 51.1496 395.893 -0.625821 -0.50137 0.597475
-15.2968 51.1118 395.713 -0.674852 -0.451898 0.583407
-15.4002 51.092 395.535 -0.747847 -0.424109 0.510741
-15.513 51.0692 395.357 -0.764939 -0.441549 0.468937
-15.6032 51.0537 395.179 -0.776379 -0.487169 0.399878
-15.6653 51.0473 395.002 -0.771048 -0.486861 0.410428
-15.7825 51.0282 394.824 -0.789258 -0.490774 0.36907
-15.8267 51.0224 394.647 -0.850818 -0.451982 0.267993
-15.8688 51.0266 394.471 -0.882287 -0.386918 0.268074
-15.9437 51.0185 394.294 -0.857939 -0.45279 0.242739
-15.9869 51.0095 394.117 -0.810616 -0.51639 0.276123
-16.0591 51.0071 393.94 -0.821411 -0.506191 0.262782
-16.0807 51.0087 393.764 -0.859048 -0.490876 0.145181
-16.1126 51.0129 393.588 -0.875271 -0.465938 0.129623
-16.1392 51.0169 393.412 -0.892699 -0.435051 0.117552
-16.161 51.0219 393.236 -0.907153 -0.415434 0.0669855
-16.1716 51.0336 393.06 -0.919092 -0.393649 0.017633
-16.1761 51.0458 392.884 -0.917591 -0.394994 0.0448046
-16.1871 51.0553 392.709 -0.904958 -0.412583 0.104052
-16.2305 51.0561 392.532 -0.914369 -0.404576 0.0157171
-16.2194 51.0715 392.357 -0.902935 -0.394823 -0.169772
-16.1827 51.0987 392.182 -0.878336 -0.412415 -0.241742
-16.145 51.1285 392.006 -0.851438 -0.403274 -0.335296
-16.0801 51.1593 391.831 -0.840946 -0.419473 -0.341836
-16.0306 51.1879 391.656 -0.845431 -0.417618 -0.332927
-15.958 51.2263 391.481 -0.82754 -0.408111 -0.385516
-15.9153 51.2543 391.305 -0.822459 -0.439708 -0.360858
-15.8538 51.287 391.13 -0.802215 -0.44931 -0.393156
-15.7804 51.3245 390.955 -0.759577 -0.468591 -0.45107
-15.6895 51.3683 390.78 -0.741594 -0.471937 -0.476775
-15.5986 51.4115 390.604 -0.714166 -0.399069 -0.575075
-15.4786 51.4642 390.429 -0.723682 -0.44642 -0.526303
-15.3772 51.5125 390.254 -0.778494 -0.421672 -0.464908
-15.2966 51.5522 390.078 -0.810002 -0.340401 -0.477519
-15.2244 51.588 389.902 -0.759468 -0.365995 -0.537826
-15.0866 51.6465 389.727 -0.692813 -0.321944 -0.645261
-14.9712 51.6978 389.551 -0.665614 -0.325195 -0.671718
-14.8193 51.7609 389.375 -0.648988 -0.419962 -0.634387
-14.6723 51.8224 389.199 -0.630499 -0.399535 -0.665464
-14.5249 51.8841 389.023 -0.637223 -0.3826 -0.669003
-14.4211 51.9316 388.847 -0.63736 -0.440034 -0.632569
-14.2638 51.9966 388.67 -0.59816 -0.386446 -0.702043
-14.0656 52.0748 388.494 -0.604245 -0.345974 -0.717767
-13.9027 52.1416 388.317 -0.601365 -0.380822 -0.702378
-13.739 52.2086 388.14 -0.58878 -0.35423 -0.72654
-13.5494 52.2841 387.963 -0.589535 -0.307934 -0.746743
-13.3718 52.3557 387.786 -0.623369 -0.356448 -0.695957
-13.2419 52.4119 387.609 -0.613309 -0.366458 -0.699686
-13.0436 52.4903 387.431 -0.578482 -0.330865 -0.745578
-12.8783 52.558 387.253 -0.526961 -0.328456 -0.783855
-12.613 52.6581 387.075 -0.533041 -0.363313 -0.764115
-12.4593 52.7221 386.897 -0.582864 -0.414102 -0.699134
-12.3101 52.7846 386.719 -0.570986 -0.405877 -0.71361
-12.1008 52.8667 386.54 -0.543552 -0.367012 -0.754886
-11.9237 52.9383 386.362 -0.523924 -0.380102 -0.762251
-11.6826 53.0308 386.183 -0.521112 -0.333614 -0.785585
-11.5031 53.1032 386.004 -0.484399 -0.369663 -0.792911
-9.92211 52.6511 400.843 -0.697237 -0.280648 0.659619
-10.0691 52.6174 400.66 -0.722679 -0.337534 0.603163
-10.2006 52.5885 400.476 -0.74778 -0.384784 0.541079
-10.3233 52.5626 400.294 -0.721393 -0.386171 0.574861
-10.4861 52.5237 400.11 -0.648682 -0.386589 0.655561
-10.6473 52.4853 399.926 -0.649282 -0.395176 0.649822
-10.7871 52.4539 399.744 -0.596004 -0.361561 0.716974
-11.0257 52.3905 399.558 -0.587498 -0.375648 0.716753
-12.7676 51.9104 398.44 -0.427068 -0.290334 0.85634
-13.0602 51.8295 398.254 -0.45263 -0.307615 0.836958
-13.3747 51.7416 398.069 -0.47855 -0.377041 0.792988
-13.573 51.6912 397.886 -0.497289 -0.440363 0.747518
-13.7804 51.6378 397.704 -0.54589 -0.378566 0.747457
-13.9935 51.5826 397.522 -0.611747 -0.342033 0.713287
-14.1632 51.5414 397.341 -0.638666 -0.409285 0.651607
-14.3216 51.5039 397.16 -0.628084 -0.432083 0.647159
-14.4907 51.4628 396.979 -0.687768 -0.438175 0.578773
-14.5873 51.4452 396.801 -0.716082 -0.418576 0.558588
-14.7318 51.4121 396.621 -0.688732 -0.424872 0.58748
-14.8439 51.3895 396.442 -0.688157 -0.44432 0.573603
-14.9914 51.3554 396.262 -0.704078 -0.388 0.594752
-15.1303 51.3241 396.083 -0.727401 -0.412732 0.548216
-15.2409 51.302 395.905 -0.68011 -0.468657 0.563747
-15.3687 51.2743 395.726 -0.707196 -0.442826 0.551161
-15.4696 51.2553 395.548 -0.761239 -0.382389 0.52373
-15.5973 51.2247 395.369 -0.784189 -0.354734 0.509129
-15.6915 51.2107 395.191 -0.809584 -0.417289 0.412848
-15.7776 51.1913 395.014 -0.782151 -0.466948 0.412552
-15.8569 51.1835 394.836 -0.839683 -0.431104 0.330275
-15.8817 51.1875 394.66 -0.89859 -0.387933 0.205048
-15.9294 51.1816 394.483 -0.843169 -0.427319 0.326288
-16.0314 51.1744 394.306 -0.837787 -0.445685 0.315401
-16.0626 51.1682 394.13 -0.854536 -0.440556 0.275096
-16.1329 51.1657 393.953 -0.859403 -0.446325 0.249442
-16.1709 51.1649 393.777 -0.899633 -0.41883 0.123459
-16.1825 51.1744 393.601 -0.906864 -0.409144 0.100988
-16.2029 51.1833 393.425 -0.911789 -0.398116 0.100719
-16.2224 51.189 393.249 -0.933929 -0.35383 0.0508108
-16.2223 51.2025 393.073 -0.939365 -0.342232 0.0216785
-16.24 51.2105 392.897 -0.919983 -0.386937 0.062537
-16.2686 51.2142 392.721 -0.899111 -0.426561 0.0982122
-16.275 51.2265 392.546 -0.927595 -0.372573 0.0275097
-16.2746 51.2406 392.37 -0.93684 -0.323144 -0.133826
-16.2498 51.2623 392.194 -0.898757 -0.373524 -0.229597
-16.2123 51.2866 392.019 -0.873107 -0.37164 -0.315545
-16.1485 51.3179 391.844 -0.868599 -0.357462 -0.343158
-16.1014 51.3516 391.669 -0.869606 -0.369083 -0.327969
-16.0605 51.3786 391.494 -0.848139 -0.389366 -0.359241
-15.9823 51.4223 391.318 -0.859906 -0.379362 -0.341534
-15.9426 51.4436 391.143 -0.878989 -0.322703 -0.351056
-15.8835 51.4772 390.968 -0.833678 -0.335374 -0.438755
-15.8007 51.5179 390.792 -0.766677 -0.388705 -0.510994
-15.6883 51.5682 390.617 -0.723285 -0.414016 -0.552674
-15.5864 51.615 390.442 -0.714942 -0.410336 -0.566111
-15.4691 51.6668 390.267 -0.734462 -0.424999 -0.529095
-15.3715 51.7148 390.091 -0.775942 -0.456574 -0.435263
-15.3166 51.7426 389.915 -0.751708 -0.38299 -0.536892
-15.1732 51.8064 389.739 -0.707279 -0.313335 -0.633702
-15.0409 51.8617 389.564 -0.689435 -0.378877 -0.617358
-14.9312 51.9106 389.388 -0.633466 -0.443352 -0.634161
-14.7974 51.968 389.212 -0.590965 -0.451394 -0.668583
-14.6214 52.039 389.036 -0.61766 -0.463984 -0.634992
-14.4996 52.0925 388.86 -0.648589 -0.404222 -0.644931
-14.328 52.1621 388.683 -0.619041 -0.300096 -0.725762
-14.1636 52.2295 388.507 -0.617302 -0.354071 -0.702547
-14.0383 52.2841 388.33 -0.592344 -0.383888 -0.708349
-13.8215 52.3685 388.153 -0.587554 -0.311514 -0.74682
-13.6494 52.4384 387.976 -0.591846 -0.325182 -0.737547
-13.4656 52.5121 387.799 -0.609515 -0.399695 -0.684643
-13.3305 52.57 387.622 -0.637915 -0.306603 -0.706441
-13.1373 52.6469 387.444 -0.616436 -0.288492 -0.732652
-12.984 52.7107 387.267 -0.53747 -0.333056 -0.774725
-12.7431 52.8031 387.089 -0.515066 -0.401228 -0.757445
-12.6021 52.863 386.911 -0.556355 -0.462321 -0.690456
-12.3866 52.9472 386.732 -0.608366 -0.31905 -0.726704
-12.2577 53.0032 386.554 -0.591296 -0.296031 -0.750157
-12.0179 53.0953 386.375 -0.543973 -0.299451 -0.783851
-11.8277 53.1713 386.196 -0.539179 -0.360953 -0.76092
-11.6396 53.2467 386.017 -0.490847 -0.433396 -0.755803
-11.4486 53.323 385.838 -0.47568 -0.46869 -0.744351
-9.97899 52.8213 400.856 -0.665476 -0.304179 0.681628
-10.149 52.78 400.672 -0.706099 -0.332659 0.62511
-10.2872 52.749 400.489 -0.73395 -0.405407 0.544942
-10.3807 52.7324 400.307 -0.696736 -0.409819 0.588733
-10.5486 52.6918 400.123 -0.663189 -0.340827 0.666346
-10.7143 52.6519 399.939 -0.68151 -0.32825 0.654061
-10.8797 52.6121 399.756 -0.606113 -0.313407 0.731028
-11.1226 52.5472 399.57 -0.576837 -0.294709 0.761844
-13.7111 51.8333 397.897 -0.571147 -0.372056 0.731687
-13.8511 51.8016 397.717 -0.564848 -0.40695 0.717871
-14.0727 51.7435 397.534 -0.580705 -0.355373 0.732456
-14.262 51.6959 397.353 -0.64238 -0.369206 0.671591
-14.4087 51.662 397.172 -0.660628 -0.38341 0.645421
-14.5547 51.6284 396.992 -0.725607 -0.387633 0.568537
-14.6476 51.6119 396.814 -0.727787 -0.371429 0.576512
-14.8256 51.5679 396.633 -0.697954 -0.382523 0.605422
-14.9457 51.5426 396.454 -0.722305 -0.436913 0.53608
-15.0379 51.5264 396.276 -0.690293 -0.40236 0.601333
-15.2117 51.4837 396.095 -0.710976 -0.365824 0.600571
-15.3313 51.4586 395.917 -0.732793 -0.395516 0.553698
-15.4581 51.4312 395.738 -0.758903 -0.41296 0.503517
-15.5302 51.4214 395.56 -0.77238 -0.393883 0.498282
-15.6483 51.3997 395.382 -0.761225 -0.351314 0.545082
-15.7752 51.3693 395.204 -0.80477 -0.372272 0.462341
-15.8429 51.3611 395.027 -0.837546 -0.390065 0.382578
-15.9124 51.3521 394.849 -0.88695 -0.356546 0.293589
-15.967 51.3513 394.673 -0.8706 -0.424483 0.248735
-16.0323 51.3358 394.496 -0.798486 -0.502355 0.331753
-16.0936 51.3343 394.319 -0.835967 -0.455999 0.305328
-16.1477 51.328 394.142 -0.87095 -0.401069 0.283884
-16.2129 51.3224 393.965 -0.899008 -0.375564 0.225246
-16.2163 51.3298 393.79 -0.928618 -0.351702 0.118216
-16.2613 51.3345 393.613 -0.920908 -0.378632 0.0925536
-16.2684 51.345 393.438 -0.927713 -0.368796 0.0577715
-16.2796 51.3556 393.262 -0.931295 -0.362136 0.0393229
-16.2941 51.365 393.086 -0.914575 -0.399514 0.0627702
-16.3252 51.3682 392.909 -0.90275 -0.417968 0.101716
-16.3384 51.3778 392.734 -0.908183 -0.416277 0.0437889
-16.3416 51.3907 392.559 -0.901215 -0.433111 -0.0150265
-16.3455 51.4032 392.383 -0.893344 -0.44334 -0.0733923
-16.3404 51.418 392.207 -0.888611 -0.404131 -0.216909
-16.28 51.453 392.032 -0.86324 -0.386466 -0.324748
-16.2313 51.4811 391.857 -0.854986 -0.394809 -0.33634
-16.174 51.5148 391.682 -0.883609 -0.359787 -0.299648
-16.131 51.5412 391.506 -0.869484 -0.326714 -0.370479
-16.047 51.5837 391.331 -0.844916 -0.364898 -0.39111
-15.9833 51.6124 391.156 -0.870644 -0.373937 -0.31961
-15.9379 51.6452 390.981 -0.878355 -0.311533 -0.362547
-15.8848 51.6762 390.805 -0.823255 -0.316552 -0.471218
-15.7965 51.7225 390.63 -0.770024 -0.318575 -0.552786
-15.676 51.7716 390.455 -0.731699 -0.375493 -0.568877
-15.572 51.8192 390.279 -0.734231 -0.423631 -0.53051
-15.4917 51.8592 390.104 -0.771994 -0.425841 -0.471894
-15.3847 51.9053 389.928 -0.716822 -0.414189 -0.560904
-15.2543 51.964 389.753 -0.715713 -0.371327 -0.591499
-15.1889 51.9971 389.577 -0.718705 -0.420344 -0.553872
-15.0668 52.0522 389.401 -0.6471 -0.459075 -0.608697
-14.9271 52.112 389.225 -0.619532 -0.389349 -0.681606
-14.7628 52.1793 389.049 -0.603596 -0.4214 -0.676826
-14.6126 52.2421 388.873 -0.59755 -0.425985 -0.679316
-14.4376 52.3129 388.697 -0.593262 -0.405148 -0.695626
-14.3028 52.3707 388.52 -0.599561 -0.43222 -0.673582
-14.117 52.4451 388.343 -0.582462 -0.340542 -0.738085
-13.9195 52.5233 388.167 -0.585816 -0.325582 -0.74217
-13.773 52.585 387.99 -0.610143 -0.343204 -0.714098
-13.6013 52.6549 387.813 -0.589326 -0.337152 -0.734182
-13.3741 52.7428 387.635 -0.62107 -0.339183 -0.70656
-13.2701 52.7907 387.458 -0.639565 -0.350441 -0.684213
-13.102 52.8595 387.28 -0.565274 -0.357319 -0.743498
-12.9179 52.9335 387.102 -0.529833 -0.386774 -0.754773
-12.6974 53.0193 386.924 -0.546377 -0.329224 -0.770119
-12.4627 53.1099 386.746 -0.597685 -0.33099 -0.730218
-12.3299 53.1672 386.567 -0.609303 -0.296499 -0.735417
-12.1111 53.2526 386.389 -0.594926 -0.247566 -0.764705
-11.9711 53.3124 386.21 -0.591109 -0.367527 -0.717993
-11.796 53.3836 386.031 -0.540301 -0.384199 -0.748643
-11.5767 53.4692 385.852 -0.509242 -0.35207 -0.785315
-11.3676 53.5515 385.672 -0.514058 -0.390299 -0.763813
-10.2165 52.9467 400.684 -0.671282 -0.346773 0.655079
-10.3758 52.9088 400.5 -0.733772 -0.384733 0.559964
-10.4863 52.8866 400.318 -0.696983 -0.468328 0.543032
-10.612 52.8596 400.136 -0.637373 -0.42354 0.643715
-10.7932 52.8146 399.951 -0.658779 -0.372436 0.653683
-10.9227 52.7863 399.769 -0.60357 -0.331464 0.725145
-11.1628 52.7222 399.583 -0.518028 -0.265439 0.813135
-13.7869 51.9954 397.91 -0.562804 -0.349104 0.749252
-13.9537 51.955 397.728 -0.585355 -0.42643 0.689577
-14.1497 51.9051 397.547 -0.568795 -0.396857 0.720401
-14.3249 51.8619 397.365 -0.64659 -0.350562 0.677516
-14.4836 51.8241 397.185 -0.676038 -0.370029 0.637222
-14.6348 51.7887 397.005 -0.717648 -0.424205 0.552297
-14.7353 51.7697 396.826 -0.697322 -0.417267 0.582779
-14.8937 51.7319 396.646 -0.682458 -0.368792 0.631065
-15.0281 51.702 396.466 -0.753583 -0.389902 0.529235
-15.1358 51.6806 396.288 -0.719914 -0.383858 0.578253
-15.2775 51.6483 396.108 -0.700971 -0.364531 0.612991
-15.4032 51.6212 395.929 -0.734423 -0.382621 0.560556
-15.5222 51.5962 395.751 -0.757206 -0.439826 0.4829
-15.6136 51.5803 395.573 -0.755035 -0.469186 0.458025
-15.7209 51.5589 395.395 -0.724303 -0.428106 0.540473
-15.8424 51.5332 395.216 -0.792056 -0.394443 0.4659
-15.9092 51.5251 395.039 -0.86312 -0.366125 0.347815
-15.9753 51.5139 394.862 -0.844044 -0.405781 0.350614
-16.0635 51.5023 394.685 -0.818977 -0.466981 0.333475
-16.1231 51.4965 394.508 -0.849029 -0.440124 0.292303
-16.1686 51.4998 394.332 -0.878983 -0.401824 0.25676
-16.2096 51.4958 394.155 -0.88328 -0.391718 0.257631
-16.2482 51.4969 393.979 -0.909586 -0.362391 0.203291
-16.2992 51.4941 393.802 -0.919947 -0.364128 0.145287
-16.3183 51.4998 393.626 -0.937752 -0.336371 0.0864631
-16.324 51.5123 393.451 -0.9475 -0.314745 0.0563853
-16.3549 51.518 393.274 -0.924857 -0.372226 0.0780264
-16.371 51.5255 393.099 -0.902573 -0.423117 0.0795828
-16.385 51.5342 392.923 -0.907019 -0.408302 0.102985
-16.4175 51.5369 392.747 -0.925794 -0.371438 0.0702755
-16.4353 51.5455 392.571 -0.922208 -0.38665 0.0058783
-16.4348 51.559 392.396 -0.913491 -0.396024 -0.0932696
-16.3943 51.5865 392.22 -0.906734 -0.364552 -0.211978
-16.3742 51.6039 392.045 -0.86702 -0.387196 -0.313617
-16.3027 51.6416 391.87 -0.817218 -0.434735 -0.378364
-16.2304 51.6806 391.695 -0.842122 -0.433106 -0.321324
-16.1994 51.7038 391.519 -0.87228 -0.360635 -0.330257
-16.1434 51.7364 391.344 -0.837638 -0.374987 -0.397174
-16.0764 51.772 391.169 -0.810953 -0.45168 -0.371942
-16.0052 51.8089 390.994 -0.830405 -0.443298 -0.337513
-15.9592 51.8377 390.818 -0.822979 -0.349434 -0.447885
-15.8333 51.8924 390.643 -0.798749 -0.335958 -0.499131
-15.8005 51.9131 390.467 -0.752175 -0.374731 -0.542041
-15.6454 51.9812 390.292 -0.750354 -0.369437 -0.548166
-15.5686 52.02 390.117 -0.800962 -0.394279 -0.450559
-15.5146 52.0514 389.941 -0.723411 -0.364578 -0.58631
-15.3417 52.1215 389.766 -0.72718 -0.388247 -0.566104
-15.2704 52.1586 389.59 -0.774229 -0.397078 -0.492847
-15.17 52.2052 389.414 -0.705809 -0.304054 -0.639832
-14.9946 52.2762 389.238 -0.672473 -0.324187 -0.665344
-14.8954 52.3224 389.062 -0.637597 -0.365884 -0.677937
-14.7049 52.3984 388.886 -0.628487 -0.35252 -0.693349
-14.5894 52.4499 388.71 -0.604112 -0.402643 -0.687697
-14.3854 52.5303 388.533 -0.577594 -0.407746 -0.707197
-14.2391 52.5919 388.357 -0.558166 -0.373239 -0.741042
-14.0287 52.6744 388.18 -0.571489 -0.354454 -0.74011
-13.8497 52.7468 388.003 -0.638977 -0.2903 -0.712344
-13.6814 52.8156 387.826 -0.611785 -0.264701 -0.745421
-13.5128 52.8846 387.648 -0.612786 -0.353835 -0.706608
-13.3511 52.9513 387.471 -0.677623 -0.338602 -0.652821
-13.2207 53.0079 387.294 -0.64266 -0.248072 -0.724878
-13.0099 53.0907 387.116 -0.566858 -0.239751 -0.788157
-12.776 53.181 386.937 -0.54318 -0.300627 -0.783951
-12.62 53.2461 386.759 -0.530307 -0.423456 -0.73448
-12.3954 53.3334 386.581 -0.54851 -0.383527 -0.742997
-12.2159 53.4061 386.402 -0.60451 -0.352719 -0.714252
-12.0727 53.467 386.224 -0.620908 -0.366393 -0.692985
-11.8899 53.5408 386.045 -0.574381 -0.31216 -0.756732
-11.6915 53.6197 385.866 -0.551729 -0.291506 -0.781421
-11.477 53.7039 385.686 -0.542751 -0.31049 -0.780396
-11.3088 53.7838 385.505 -0.72574 -0.493149 -0.479694
-10.2835 53.1135 400.697 -0.659246 -0.35831 0.661066
-10.4584 53.0704 400.513 -0.687819 -0.384683 0.615568
-10.5955 53.0397 400.33 -0.715899 -0.445709 0.53743
-10.7064 53.0173 400.148 -0.685373 -0.382986 0.619343
-10.875 52.9763 399.964 -0.685314 -0.330505 0.648931
-11.0192 52.9432 399.781 -0.627446 -0.318753 0.710428
-11.2453 52.8835 399.595 -0.491962 -0.279133 0.824656
-13.8824 52.1511 397.922 -0.534983 -0.345666 0.770914
-14.0747 52.1023 397.74 -0.607245 -0.401179 0.685791
-14.2242 52.0674 397.559 -0.60275 -0.408195 0.685616
-14.4099 52.0208 397.378 -0.635695 -0.367494 0.678851
-14.5675 51.9832 397.197 -0.663129 -0.357992 0.657344
-14.7339 51.9428 397.017 -0.717784 -0.421528 0.554166
-14.8087 51.9348 396.838 -0.691588 -0.471698 0.546998
-14.9687 51.8937 396.658 -0.666986 -0.408637 0.623014
-15.1022 51.864 396.479 -0.759832 -0.368222 0.535787
-15.1854 51.8506 396.301 -0.732232 -0.368906 0.57249
-15.3576 51.8083 396.121 -0.701192 -0.356051 0.617703
-15.484 51.7808 395.942 -0.715797 -0.372779 0.590484
-15.6421 51.7429 395.762 -0.749714 -0.427218 0.505384
-15.7056 51.736 395.585 -0.785101 -0.433421 0.442451
-15.809 51.7161 395.407 -0.749072 -0.430997 0.503124
-15.9063 51.6981 395.229 -0.788446 -0.444424 0.425254
-15.9707 51.6913 395.052 -0.806336 -0.458824 0.373233
-16.0753 51.6703 394.874 -0.779425 -0.4873 0.393745
-16.1438 51.664 394.697 -0.832445 -0.465215 0.301016
-16.17 51.6627 394.521 -0.880555 -0.400011 0.254191
-16.2408 51.6628 394.344 -0.888795 -0.38564 0.24764
-16.2781 51.6589 394.168 -0.87854 -0.422262 0.223298
-16.3349 51.6541 393.991 -0.88996 -0.409182 0.201349
-16.3493 51.6631 393.816 -0.921666 -0.36951 0.118297
-16.3646 51.6733 393.639 -0.931111 -0.35924 0.0630814
-16.3854 51.6787 393.463 -0.917733 -0.381477 0.11064
-16.4232 51.68 393.287 -0.904212 -0.4069 0.129741
-16.4484 51.6857 393.111 -0.919754 -0.38697 0.0656193
-16.457 51.6962 392.935 -0.928937 -0.363914 0.0681428
-16.4658 51.7054 392.76 -0.940446 -0.326768 0.0937204
-16.4867 51.7141 392.584 -0.951904 -0.304693 0.0322683
-16.4864 51.7276 392.409 -0.943014 -0.315717 -0.10511
-16.4738 51.7458 392.233 -0.918674 -0.357757 -0.167473
-16.4512 51.7659 392.058 -0.8987 -0.364094 -0.244487
-16.4166 51.7944 391.882 -0.839093 -0.377602 -0.391586
-16.3327 51.8328 391.707 -0.791878 -0.471404 -0.388211
-16.2594 51.8704 391.532 -0.839232 -0.451898 -0.302453
-16.2293 51.894 391.357 -0.870348 -0.369755 -0.325231
-16.174 51.93 391.181 -0.832087 -0.395792 -0.388562
-16.1059 51.9606 391.006 -0.811832 -0.424849 -0.400541
-16.0182 52.0041 390.831 -0.820071 -0.358266 -0.446239
-15.9651 52.0352 390.656 -0.806026 -0.38248 -0.451698
-15.8566 52.0846 390.481 -0.747955 -0.380823 -0.543633
-15.7395 52.1363 390.305 -0.745781 -0.369054 -0.554625
-15.6646 52.1746 390.13 -0.784031 -0.446081 -0.431633
-15.5705 52.2191 389.954 -0.731592 -0.367941 -0.573928
-15.442 52.2748 389.779 -0.721084 -0.379303 -0.579799
-15.3573 52.3163 389.603 -0.741142 -0.42123 -0.522756
-15.2218 52.3744 389.427 -0.70264 -0.354711 -0.616828
-15.127 52.4192 389.251 -0.689346 -0.356107 -0.630864
-14.9696 52.4844 389.075 -0.652784 -0.328172 -0.682771
-14.8079 52.5511 388.899 -0.666517 -0.341689 -0.662574
-14.6995 52.6004 388.723 -0.653961 -0.330597 -0.680471
-14.5211 52.6725 388.546 -0.615608 -0.316492 -0.721705
-14.3653 52.7374 388.369 -0.589735 -0.277766 -0.758327
-14.1129 52.8337 388.193 -0.566696 -0.257759 -0.78257
-13.9266 52.9085 388.016 -0.611054 -0.34251 -0.713653
-13.7876 52.9678 387.839 -0.607005 -0.365048 -0.705893
-13.6026 53.0422 387.662 -0.598696 -0.325499 -0.731856
-13.408 53.1223 387.484 -0.631833 -0.365284 -0.683633
-13.2747 53.1774 387.307 -0.607001 -0.369876 -0.703378
-13.0887 53.2522 387.129 -0.576741 -0.300651 -0.759591
-12.9435 53.3137 386.951 -0.583714 -0.341012 -0.736878
-12.7511 53.3907 386.773 -0.536412 -0.365853 -0.760536
-12.5283 53.4775 386.594 -0.529568 -0.355506 -0.770178
-12.3342 53.5551 386.416 -0.595362 -0.371542 -0.712391
-12.1703 53.6228 386.237 -0.623341 -0.343949 -0.702243
-12.0043 53.6912 386.058 -0.574189 -0.308808 -0.758251
-11.7729 53.781 385.879 -0.514555 -0.391417 -0.762906
-11.6 53.8517 385.7 -0.514703 -0.388887 -0.764099
-11.3393 53.9512 385.52 -0.622275 -0.351112 -0.699639
-10.3553 53.2787 400.71 -0.685801 -0.264109 0.678177
-10.5566 53.227 400.524 -0.697242 -0.300528 0.650797
-10.6659 53.2052 400.342 -0.787478 -0.332491 0.518968
-10.7513 53.1911 400.161 -0.73823 -0.313583 0.597229
-10.9267 53.1477 399.977 -0.684479 -0.322538 0.653802
-11.0686 53.1153 399.794 -0.594593 -0.387209 0.704648
-11.3065 53.0517 399.608 -0.446934 -0.371308 0.813868
-13.4362 52.4556 398.302 -0.460945 -0.356553 0.81265
-13.693 52.3858 398.118 -0.470615 -0.367551 0.802139
-13.9463 52.3171 397.934 -0.520775 -0.35817 0.774924
-14.1556 52.2627 397.752 -0.624633 -0.349132 0.698527
-14.3172 52.2237 397.571 -0.645385 -0.37331 0.666422
-14.476 52.1857 397.39 -0.637811 -0.386053 0.666454
-14.6329 52.1483 397.21 -0.64686 -0.349327 0.677896
-14.82 52.0983 397.029 -0.711843 -0.367758 0.598359
-14.9336 52.0777 396.85 -0.718032 -0.469485 0.513822
-15.0378 52.0574 396.671 -0.676531 -0.464278 0.571622
-15.165 52.0297 396.492 -0.73709 -0.411559 0.53602
-15.2873 52.0035 396.313 -0.722532 -0.395249 0.567208
-15.4122 51.9765 396.134 -0.698515 -0.348314 0.625104
-15.5644 51.9406 395.954 -0.703818 -0.353352 0.616265
-15.6903 51.9132 395.776 -0.782996 -0.355158 0.510667
-15.7695 51.901 395.598 -0.822684 -0.329966 0.462941
-15.897 51.8732 395.419 -0.766416 -0.39295 0.508131
-15.9973 51.8536 395.241 -0.775063 -0.464634 0.428243
-16.0912 51.8372 395.064 -0.77859 -0.483532 0.399993
-16.1589 51.8265 394.887 -0.810491 -0.455728 0.36799
-16.2181 51.8272 394.71 -0.882499 -0.4059 0.237572
-16.2493 51.8219 394.534 -0.877198 -0.418083 0.236073
-16.3094 51.8225 394.357 -0.849061 -0.45105 0.275044
-16.3657 51.8177 394.18 -0.877066 -0.43204 0.209992
-16.3803 51.827 394.004 -0.901504 -0.401035 0.162673
-16.4251 51.8241 393.828 -0.904345 -0.413606 0.105309
-16.444 51.8312 393.652 -0.911296 -0.403542 0.0818115
-16.4652 51.8378 393.476 -0.907163 -0.398102 0.136274
-16.4983 51.841 393.3 -0.918213 -0.379847 0.112258
-16.4982 51.8545 393.125 -0.949417 -0.310548 0.0465607
-16.5118 51.8635 392.948 -0.949746 -0.311427 0.0315454
-16.5171 51.8742 392.773 -0.937352 -0.340676 0.0728759
-16.5486 51.879 392.597 -0.93896 -0.339909 0.0530734
-16.5505 51.8921 392.422 -0.933484 -0.354361 -0.0550924
-16.5433 51.9086 392.246 -0.920257 -0.361895 -0.148858
-16.5038 51.9351 392.071 -0.918455 -0.3439 -0.195382
-16.487 51.9552 391.895 -0.891534 -0.346351 -0.291905
-16.4373 51.9829 391.72 -0.816772 -0.387192 -0.427744
-16.3487 52.0291 391.545 -0.797692 -0.470031 -0.377834
-16.2893 52.0606 391.37 -0.851148 -0.440561 -0.285401
-16.2573 52.0842 391.194 -0.869531 -0.342827 -0.355507
-16.1752 52.1188 391.019 -0.832956 -0.32347 -0.448945
-16.0955 52.1646 390.844 -0.833114 -0.357471 -0.422061
-16.0273 52.2006 390.669 -0.828423 -0.366087 -0.423906
-15.9648 52.2348 390.493 -0.760297 -0.344897 -0.550449
-15.8325 52.2918 390.318 -0.749449 -0.402045 -0.526009
-15.7621 52.3286 390.142 -0.787705 -0.412012 -0.458003
-15.6772 52.3702 389.967 -0.749272 -0.348215 -0.563327
-15.5486 52.426 389.791 -0.729695 -0.384928 -0.565133
-15.451 52.4718 389.616 -0.734941 -0.401832 -0.546253
-15.351 52.5183 389.44 -0.717133 -0.334379 -0.611482
-15.1834 52.587 389.264 -0.699902 -0.331496 -0.632651
-15.0752 52.6362 389.088 -0.662909 -0.310117 -0.681454
-14.8975 52.7098 388.912 -0.677718 -0.315213 -0.664334
-14.7677 52.7645 388.736 -0.647664 -0.356923 -0.673155
-14.5881 52.8371 388.559 -0.625714 -0.270786 -0.731545
-14.4 52.9125 388.383 -0.625961 -0.178642 -0.759118
-14.2272 52.983 388.206 -0.588226 -0.261716 -0.765177
-14.0573 53.0526 388.029 -0.609818 -0.369096 -0.701349
-13.901 53.1177 387.852 -0.618097 -0.309794 -0.722484
-13.6936 53.1995 387.675 -0.621244 -0.28963 -0.728128
-13.5828 53.2498 387.498 -0.632945 -0.384766 -0.671815
-13.4202 53.3145 387.321 -0.577723 -0.383012 -0.72079
-13.2033 53.402 387.142 -0.565804 -0.357078 -0.74321
-13.0071 53.4803 386.964 -0.592924 -0.38397 -0.707819
-12.8696 53.5394 386.786 -0.555508 -0.32301 -0.766208
-12.6234 53.634 386.608 -0.541289 -0.295069 -0.787363
-12.4309 53.7111 386.429 -0.603572 -0.308421 -0.735239
-12.2605 53.7811 386.251 -0.644359 -0.300194 -0.703339
-12.1067 53.8456 386.072 -0.629699 -0.326105 -0.705078
-11.998 53.8953 385.894 -0.531204 -0.357193 -0.768268
-11.6921 54.0097 385.714 -0.481752 -0.352077 -0.802469
-11.4988 54.0872 385.534 -0.525719 -0.441324 -0.727223
-11.2919 54.1712 385.355 -0.625072 -0.454766 -0.634408
-10.2427 53.4915 400.907 -0.660509 -0.334352 0.672263
-10.3901 53.456 400.723 -0.652219 -0.313874 0.689995
-10.5949 53.4031 400.538 -0.698249 -0.285717 0.656365
-10.7091 53.3795 400.356 -0.814005 -0.259442 0.519698
-10.8375 53.3514 400.173 -0.716104 -0.341351 0.608831
-11.0098 53.309 399.989 -0.607197 -0.39177 0.691251
-11.2424 53.247 399.803 -0.545613 -0.420256 0.725045
-11.4489 53.1935 399.619 -0.450629 -0.427848 0.783504
-13.5676 52.5998 398.313 -0.466421 -0.337635 0.817591
-13.8082 52.5352 398.129 -0.488748 -0.362122 0.793721
-14.0518 52.4695 397.946 -0.545932 -0.356968 0.757979
-14.2114 52.4311 397.765 -0.620396 -0.34049 0.706524
-14.408 52.3807 397.583 -0.657153 -0.323563 0.680777
-14.5606 52.3446 397.403 -0.674614 -0.345501 0.652323
-14.7147 52.308 397.222 -0.645242 -0.359143 0.674299
-14.8803 52.2677 397.042 -0.667486 -0.365461 0.648768
-15.0342 52.2312 396.861 -0.749293 -0.388435 0.536356
-15.1265 52.2147 396.683 -0.746654 -0.39435 0.53572
-15.2658 52.183 396.503 -0.738778 -0.419295 0.527635
-15.3343 52.1742 396.326 -0.738453 -0.402302 0.541147
-15.489 52.1374 396.146 -0.689357 -0.367309 0.624397
-15.6355 52.1033 395.967 -0.710887 -0.362021 0.602977
-15.7556 52.0778 395.788 -0.802119 -0.345561 0.487025
-15.8303 52.067 395.611 -0.786076 -0.335945 0.518869
-15.9822 52.0311 395.432 -0.762867 -0.322812 0.560201
-16.0828 52.012 395.254 -0.815371 -0.356872 0.455865
-16.1566 52.0015 395.077 -0.842362 -0.379595 0.382537
-16.2211 51.99 394.9 -0.868621 -0.37834 0.319931
-16.2805 51.9884 394.723 -0.88174 -0.398892 0.251833
-16.326 51.9812 394.546 -0.849034 -0.455222 0.268167
-16.4039 51.9754 394.369 -0.843299 -0.47723 0.24718
-16.4136 51.9767 394.193 -0.886846 -0.426973 0.176629
-16.4749 51.9761 394.017 -0.890928 -0.418752 0.175769
-16.4981 51.9856 393.841 -0.912029 -0.398478 0.0970476
-16.4982 51.999 393.665 -0.934246 -0.34771 0.079257
-16.5287 52.0014 393.489 -0.938971 -0.320852 0.124044
-16.5445 52.0121 393.313 -0.944141 -0.326281 0.0462407
-16.5443 52.0255 393.138 -0.93295 -0.357247 0.0444933
-16.5795 52.0276 392.961 -0.925047 -0.375855 0.0549746
-16.5816 52.0407 392.786 -0.92163 -0.381789 0.069541
-16.6094 52.0457 392.61 -0.939191 -0.334804 0.0763375
-16.6172 52.0561 392.434 -0.953808 -0.29868 -0.0322652
-16.6084 52.0711 392.259 -0.937319 -0.31039 -0.158402
-16.572 52.0935 392.083 -0.914608 -0.363143 -0.177816
-16.5643 52.1146 391.908 -0.898208 -0.382455 -0.21668
-16.5109 52.1436 391.733 -0.860676 -0.362087 -0.357952
-16.4672 52.1737 391.558 -0.815525 -0.389325 -0.428187
-16.3641 52.219 391.383 -0.816171 -0.445046 -0.36851
-16.3149 52.2501 391.207 -0.847376 -0.394098 -0.355867
-16.2445 52.2879 391.032 -0.836616 -0.344033 -0.42628
-16.1826 52.3218 390.857 -0.814232 -0.405715 -0.415236
-16.1106 52.3592 390.682 -0.817663 -0.407392 -0.406767
-16.0369 52.3971 390.506 -0.787217 -0.346579 -0.51007
-15.9302 52.4488 390.331 -0.758267 -0.368758 -0.537632
-15.8329 52.4914 390.155 -0.770724 -0.416941 -0.481813
-15.7361 52.5369 389.98 -0.767736 -0.355698 -0.532973
-15.6453 52.5804 389.804 -0.759359 -0.334073 -0.558363
-15.5319 52.6314 389.629 -0.751967 -0.314766 -0.579196
-15.3872 52.6926 389.453 -0.753933 -0.255642 -0.605172
-15.308 52.7324 389.277 -0.699028 -0.337172 -0.630615
-15.1374 52.8021 389.101 -0.646534 -0.341039 -0.682412
-14.9855 52.8657 388.925 -0.685702 -0.36206 -0.631448
-14.9155 52.901 388.749 -0.601667 -0.379399 -0.702889
-14.6412 53.0063 388.573 -0.559203 -0.320254 -0.764676
-14.4988 53.0668 388.396 -0.596108 -0.370669 -0.712221
-14.3296 53.1362 388.219 -0.580731 -0.367657 -0.726347
-14.138 53.2129 388.043 -0.584205 -0.360086 -0.727353
-13.9512 53.2881 387.866 -0.596379 -0.334062 -0.729887
-13.7954 53.3531 387.688 -0.629757 -0.356344 -0.690235
-13.6405 53.4179 387.511 -0.66369 -0.365462 -0.652651
-13.5034 53.4769 387.334 -0.617383 -0.28447 -0.733427
-13.31 53.5543 387.156 -0.59778 -0.292161 -0.746526
-13.1755 53.6125 386.978 -0.578024 -0.385717 -0.719103
-12.9477 53.7012 386.8 -0.529549 -0.360564 -0.767835
-12.7452 53.7817 386.621 -0.5308 -0.288484 -0.796887
-12.5025 53.8767 386.443 -0.567275 -0.351111 -0.74493
-12.3569 53.9372 386.264 -0.592222 -0.437282 -0.6768
-12.2022 54.0021 386.086 -0.617501 -0.454424 -0.642021
-12.0541 54.0648 385.907 -0.585208 -0.282179 -0.760201
-11.8365 54.1504 385.727 -0.52736 -0.290634 -0.798388
-11.6588 54.2229 385.548 -0.489409 -0.443291 -0.750981
-11.4285 54.3126 385.368 -0.487305 -0.433292 -0.75815
-10.339 53.6476 400.919 -0.645361 -0.393355 0.654813
-10.4956 53.6102 400.735 -0.636215 -0.403705 0.657459
-10.6457 53.575 400.551 -0.677251 -0.40137 0.61663
-10.7638 53.5502 400.369 -0.726684 -0.369007 0.579452
-10.9272 53.5106 400.185 -0.66313 -0.358281 0.657186
-11.1073 53.4655 400.001 -0.591677 -0.358355 0.722149
-11.3027 53.4155 399.816 -0.542104 -0.350452 0.763745
-11.56 53.3454 399.63 -0.513983 -0.351392 0.782525
-13.6345 52.765 398.326 -0.474959 -0.30237 0.82643
-13.8789 52.699 398.142 -0.514389 -0.336094 0.788952
-14.1077 52.638 397.959 -0.564757 -0.365521 0.739894
-14.2938 52.5909 397.777 -0.630844 -0.351236 0.69186
-14.4506 52.5534 397.596 -0.653398 -0.312459 0.689522
-14.6284 52.509 397.415 -0.682973 -0.28906 0.670814
-14.7878 52.4706 397.235 -0.666207 -0.30679 0.679742
-14.9715 52.4243 397.054 -0.672973 -0.35886 0.646782
-15.0831 52.4015 396.875 -0.749326 -0.380992 0.541623
-15.1934 52.3791 396.696 -0.750369 -0.353289 0.558688
-15.3363 52.3461 396.516 -0.749053 -0.413934 0.517279
-15.4295 52.3293 396.338 -0.730489 -0.438125 0.523863
-15.5692 52.2973 396.159 -0.690376 -0.380082 0.615564
-15.6956 52.2696 395.98 -0.741145 -0.335994 0.581215
-15.8127 52.245 395.801 -0.795597 -0.369273 0.480274
-15.8962 52.2314 395.623 -0.742679 -0.446846 0.498754
-16.0135 52.2068 395.445 -0.73682 -0.36621 0.568319
-16.1405 52.1788 395.267 -0.817251 -0.332928 0.470382
-16.2198 52.1666 395.089 -0.824588 -0.426784 0.371363
-16.298 52.1547 394.912 -0.843797 -0.422376 0.331066
-16.3601 52.1521 394.735 -0.854503 -0.418785 0.307316
-16.4341 52.136 394.558 -0.854622 -0.427328 0.294979
-16.4692 52.1433 394.382 -0.893595 -0.401205 0.201305
-16.5061 52.1412 394.206 -0.901607 -0.39811 0.169158
-16.5322 52.1462 394.03 -0.903549 -0.399315 0.15539
-16.5513 52.1537 393.854 -0.935898 -0.348975 0.04808
-16.5603 52.1649 393.678 -0.936514 -0.347131 0.049416
-16.5706 52.1728 393.502 -0.932557 -0.335947 0.132204
-16.6217 52.1753 393.326 -0.936765 -0.341108 0.078206
-16.6265 52.1838 393.15 -0.91453 -0.399936 0.0607177
-16.6474 52.1909 392.974 -0.916151 -0.396457 0.0590634
-16.6499 52.2038 392.799 -0.925613 -0.378012 0.0186634
-16.6497 52.2173 392.623 -0.930457 -0.363867 0.0430262
-16.662 52.2272 392.448 -0.940552 -0.339515 -0.00955512
-16.6616 52.2408 392.272 -0.935186 -0.339017 -0.102446
-16.6562 52.2592 392.096 -0.922066 -0.356631 -0.150362
-16.6241 52.2819 391.921 -0.924208 -0.32156 -0.206007
-16.594 52.3037 391.746 -0.899948 -0.306771 -0.309814
-16.5214 52.3416 391.571 -0.875807 -0.289375 -0.386295
-16.4784 52.3694 391.395 -0.850341 -0.321616 -0.416513
-16.3872 52.4153 391.22 -0.836811 -0.388376 -0.385889
-16.3405 52.4421 391.045 -0.846071 -0.383284 -0.370484
-16.2734 52.4778 390.87 -0.829419 -0.373515 -0.415393
-16.1906 52.5213 390.694 -0.809065 -0.396138 -0.434153
-16.1176 52.5564 390.519 -0.782041 -0.394305 -0.482634
-16.0231 52.6012 390.344 -0.769452 -0.378157 -0.514724
-15.9393 52.6394 390.168 -0.769685 -0.370578 -0.519861
-15.8292 52.6923 389.993 -0.757604 -0.362822 -0.542583
-15.716 52.7433 389.817 -0.730226 -0.381819 -0.566555
-15.5929 52.7975 389.642 -0.701642 -0.363257 -0.612979
-15.4748 52.8515 389.466 -0.745383 -0.396199 -0.536126
-15.4111 52.8848 389.29 -0.7009 -0.373748 -0.607496
-15.2294 52.9582 389.114 -0.63403 -0.359708 -0.684555
-15.1192 53.0083 388.938 -0.679993 -0.447538 -0.580792
-14.9854 53.0661 388.762 -0.62878 -0.29861 -0.717961
-14.7902 53.144 388.586 -0.575596 -0.304229 -0.759035
-14.6352 53.2088 388.409 -0.575699 -0.417752 -0.70289
-14.4379 53.2874 388.233 -0.573498 -0.372506 -0.729616
-14.2844 53.3518 388.056 -0.570405 -0.355464 -0.740461
-14.0824 53.432 387.879 -0.562863 -0.397271 -0.724818
-13.9182 53.4999 387.702 -0.568351 -0.455064 -0.685488
-13.7513 53.5686 387.524 -0.600748 -0.438993 -0.668122
-13.6068 53.6301 387.347 -0.598365 -0.348642 -0.721393
-13.3903 53.7152 387.169 -0.614788 -0.364093 -0.699622
-13.2852 53.7638 386.992 -0.595145 -0.369633 -0.713564
-13.0728 53.8476 386.813 -0.532036 -0.287833 -0.796297
-12.8348 53.9398 386.635 -0.520356 -0.341114 -0.782861
-12.6648 54.0098 386.457 -0.521645 -0.481846 -0.704067
-12.5225 54.0692 386.278 -0.539699 -0.516039 -0.665154
-12.3352 54.1463 386.099 -0.556223 -0.441335 -0.704158
-12.1432 54.2235 385.92 -0.562844 -0.380204 -0.733929
-11.9678 54.2953 385.741 -0.557116 -0.401004 -0.727198
-11.8147 54.3598 385.562 -0.50951 -0.402302 -0.760626
-11.5597 54.4578 385.382 -0.491404 -0.366649 -0.789994
-11.3416 54.5437 385.202 -0.55894 -0.342669 -0.755092
-10.406 53.8145 400.931 -0.671594 -0.309616 0.673127
-10.581 53.7695 400.747 -0.683832 -0.309145 0.660911
-10.7407 53.7326 400.563 -0.729618 -0.331495 0.598138
-10.8576 53.708 400.38 -0.721363 -0.367672 0.586901
-10.9935 53.6773 400.198 -0.642182 -0.373443 0.669435
-11.1852 53.6284 400.013 -0.578902 -0.371706 0.725746
-11.4128 53.5678 399.828 -0.536922 -0.346223 0.769314
-11.6396 53.5075 399.642 -0.485875 -0.354707 0.798817
-13.7143 52.926 398.338 -0.455915 -0.334851 0.824631
-14.0027 52.8455 398.153 -0.500254 -0.364666 0.785343
-14.2041 52.7933 397.971 -0.567638 -0.405251 0.71663
-14.3649 52.7544 397.79 -0.628108 -0.412871 0.659559
-14.5169 52.7183 397.609 -0.641004 -0.384447 0.664315
-14.6847 52.6771 397.428 -0.646127 -0.358133 0.673988
-14.844 52.6387 397.248 -0.61696 -0.371772 0.693647
-15.0487 52.5854 397.066 -0.675716 -0.357137 0.644873
-15.1596 52.5628 396.887 -0.764004 -0.377431 0.523301
-15.2723 52.5395 396.708 -0.695516 -0.415848 0.585942
-15.4395 52.4985 396.528 -0.716237 -0.452838 0.530982
-15.5045 52.4909 396.35 -0.745788 -0.448274 0.492799
-15.6284 52.464 396.171 -0.703605 -0.417973 0.574664
-15.7551 52.4362 395.993 -0.699448 -0.416641 0.580674
-15.9092 52.3994 395.813 -0.724783 -0.433426 0.535567
-16.0229 52.3758 395.635 -0.760052 -0.483165 0.434594
-16.0739 52.3728 395.458 -0.739188 -0.42082 0.525843
-16.2322 52.3346 395.279 -0.766148 -0.363256 0.530153
-16.3163 52.3197 395.101 -0.84833 -0.38065 0.368025
-16.3635 52.3148 394.925 -0.85774 -0.395762 0.328109
-16.4377 52.312 394.748 -0.84531 -0.432533 0.313633
-16.4755 52.3058 394.571 -0.866488 -0.422754 0.265477
-16.5373 52.3066 394.395 -0.886674 -0.418319 0.197026
-16.5639 52.3099 394.219 -0.875663 -0.453594 0.165734
-16.6092 52.3067 394.042 -0.889935 -0.444933 0.100246
-16.6092 52.3201 393.867 -0.915529 -0.400072 0.0418159
-16.629 52.3243 393.69 -0.909238 -0.415293 0.0286144
-16.6289 52.3375 393.515 -0.886465 -0.444726 0.128056
-16.6811 52.338 393.339 -0.908073 -0.396022 0.136275
-16.6882 52.3489 393.163 -0.922962 -0.380313 0.0591811
-16.7137 52.3544 392.987 -0.92252 -0.3836 0.042517
-16.7135 52.3679 392.812 -0.933202 -0.359336 0.00340198
-16.7321 52.3756 392.635 -0.92772 -0.372745 0.0199414
-16.7343 52.389 392.46 -0.930271 -0.366859 -0.00318721
-16.7375 52.4017 392.284 -0.933302 -0.350537 -0.07792
-16.7059 52.4209 392.109 -0.928245 -0.326818 -0.177626
-16.6718 52.4476 391.934 -0.924713 -0.321162 -0.204356
-16.6464 52.4713 391.759 -0.903119 -0.296801 -0.3103
-16.5744 52.5113 391.584 -0.885143 -0.306676 -0.349959
-16.5305 52.538 391.408 -0.878168 -0.315387 -0.359657
-16.4694 52.5718 391.233 -0.856539 -0.335098 -0.392492
-16.4019 52.6054 391.058 -0.841768 -0.393734 -0.369323
-16.3382 52.6423 390.883 -0.838955 -0.380614 -0.388956
-16.2923 52.6711 390.707 -0.832827 -0.358933 -0.421387
-16.2029 52.7116 390.532 -0.802327 -0.344187 -0.487655
-16.1063 52.7597 390.357 -0.788941 -0.328622 -0.51921
-15.9951 52.81 390.182 -0.80028 -0.301363 -0.518394
-15.9139 52.8506 390.006 -0.787795 -0.332587 -0.518426
-15.8339 52.8906 389.83 -0.718109 -0.407237 -0.564339
-15.7113 52.9447 389.655 -0.679927 -0.406441 -0.610332
-15.5763 53.0029 389.479 -0.727679 -0.438169 -0.527724
-15.4947 53.0421 389.303 -0.713898 -0.381823 -0.586993
-15.354 53.1037 389.127 -0.659555 -0.352251 -0.664008
-15.2091 53.1652 388.951 -0.647271 -0.412698 -0.640874
-15.0505 53.2311 388.775 -0.636252 -0.328686 -0.697961
-14.9015 53.294 388.599 -0.613826 -0.332496 -0.716006
-14.7277 53.365 388.422 -0.594861 -0.343451 -0.726761
-14.5557 53.4355 388.246 -0.603159 -0.296851 -0.740323
-14.3553 53.5153 388.069 -0.615409 -0.306441 -0.726199
-14.2176 53.5745 387.892 -0.594046 -0.381571 -0.708176
-14.054 53.6423 387.715 -0.561249 -0.43137 -0.706342
-13.8707 53.7165 387.538 -0.569815 -0.422654 -0.704751
-13.6933 53.7889 387.36 -0.584665 -0.377861 -0.717906
-13.5423 53.8526 387.183 -0.614247 -0.384902 -0.688877
-13.3831 53.919 387.005 -0.592575 -0.344014 -0.728361
-13.1526 54.0088 386.827 -0.560742 -0.285599 -0.777176
-13.0118 54.0692 386.649 -0.550936 -0.395605 -0.734824
-12.8238 54.1451 386.47 -0.54295 -0.454952 -0.70585
-12.6328 54.2221 386.292 -0.564249 -0.410382 -0.716387
-12.4542 54.295 386.113 -0.583131 -0.334832 -0.740166
-12.2761 54.3678 385.934 -0.603932 -0.320268 -0.729859
