-1.04771 60.604 406.513 -0.826325 -0.0139348 0.563022
-1.16047 60.6229 406.37 -0.825868 -0.0200223 0.563508
-1.24988 60.641 406.204 -0.823645 -0.0423042 0.565525
-1.36347 60.6507 406.061 -0.820908 -0.0453236 0.56926
-1.46703 60.6629 405.908 -0.872404 -0.0307507 0.487818
-1.55255 60.6892 405.738 -0.845125 -0.0728065 0.529587
-1.67529 60.6972 405.604 -0.754714 -0.165579 0.634815
-1.79415 60.7024 405.466 -0.792265 -0.155658 0.589988
-1.90004 60.7249 405.316 -0.826575 -0.134948 0.546409
-2.0045 60.735 405.164 -0.759652 -0.194907 0.620436
-2.13217 60.7367 405.035 -0.709544 -0.237981 0.663259
-2.25814 60.7412 404.904 -0.72068 -0.249642 0.646761
-2.3766 60.7464 404.766 -0.692888 -0.263369 0.671225
-2.51525 60.7441 404.648 -0.627816 -0.301792 0.717474
-2.65403 60.7382 404.529 -0.483488 -0.312437 0.817693
-2.82219 60.712 404.44 -0.379061 -0.264805 0.886674
-2.99679 60.6818 404.357 -0.301185 -0.260582 0.91727
-3.20208 60.6446 404.305 -0.112555 -0.246482 0.962589
-3.43777 60.5828 404.283 -0.140623 -0.202341 0.969166
-3.62638 60.5431 404.214 -0.128236 -0.192049 0.972971
-3.8714 60.4733 404.202 0.0156797 -0.189675 0.981722
-4.12053 60.402 404.193 0.0522757 -0.155689 0.986422
-6.8935 59.5878 404.151 -0.078258 -0.0998759 0.991918
-7.12865 59.525 404.131 -0.12465 -0.170843 0.977382
-7.32198 59.4831 404.07 -0.109558 -0.155513 0.98174
-7.55433 59.4239 404.048 -0.110296 -0.0953623 0.989313
-7.77637 59.3677 404.016 -0.16742 -0.0595132 0.984088
-7.99649 59.3126 403.983 -0.193992 -0.0957586 0.976318
-8.17781 59.2811 403.91 -0.218695 -0.107957 0.969803
-8.40203 59.2234 403.881 -0.19964 -0.10858 0.973835
-8.59086 59.1872 403.816 -0.228781 -0.105496 0.967745
-8.79348 59.1427 403.765 -0.240213 -0.0789208 0.967507
-9.00455 59.0929 403.723 -0.392602 -0.0692183 0.9171
-9.15532 59.0843 403.62 -0.359831 -0.115073 0.925894
-9.36057 59.0335 403.573 -0.30347 -0.152122 0.940619
-9.529 59.0051 403.488 -0.319734 -0.149508 0.935638
-9.7298 58.966 403.436 -0.320721 -0.16198 0.93322
-9.90086 58.9405 403.354 -0.308444 -0.164734 0.93687
-10.0987 58.8987 403.299 -0.3134 -0.149369 0.9378
-10.2719 58.8718 403.22 -0.391421 -0.144316 0.908825
-10.4522 58.84 403.148 -0.355803 -0.189675 0.915111
-10.6274 58.8124 403.07 -0.393273 -0.199346 0.897551
-10.7943 58.7892 402.985 -0.528975 -0.1835 0.828561
-10.933 58.7833 402.87 -0.541198 -0.214945 0.812959
-11.0871 58.7684 402.771 -0.471126 -0.158661 0.867679
-11.2555 58.7441 402.687 -0.511465 -0.119931 0.850894
-11.4074 58.7305 402.586 -0.527981 -0.172572 0.831538
-11.5627 58.7164 402.489 -0.541188 -0.215189 0.812901
-11.7043 58.7023 402.378 -0.586622 -0.206252 0.783157
-11.8437 58.6986 402.264 -0.629772 -0.189777 0.753241
-11.9796 58.6964 402.146 -0.646174 -0.219939 0.730812
-12.1125 58.6955 402.026 -0.639399 -0.218535 0.737164
-12.256 58.6886 401.916 -0.630232 -0.223876 0.743429
-12.3947 58.6805 401.803 -0.621065 -0.268597 0.736298
-12.5257 58.6792 401.68 -0.618746 -0.276099 0.735475
-12.661 58.6756 401.563 -0.647575 -0.243423 0.722074
-12.7909 58.6756 401.439 -0.687716 -0.234791 0.686964
-12.9165 58.6776 401.311 -0.69056 -0.248155 0.679372
-13.043 58.68 401.184 -0.676037 -0.253519 0.691883
-13.1716 58.6804 401.061 -0.659024 -0.247868 0.710104
-13.3093 58.6777 400.944 -0.647051 -0.262859 0.715703
-13.4387 58.6756 400.821 -0.611021 -0.276595 0.74172
-13.5795 58.6673 400.709 -0.550077 -0.253781 0.79562
-13.7367 58.6532 400.614 -0.549549 -0.242273 0.799562
-13.8766 58.6477 400.5 -0.573064 -0.238912 0.783912
-14.0195 58.6357 400.391 -0.579892 -0.216728 0.785337
-14.1575 58.6304 400.276 -0.579697 -0.185411 0.793457
-14.3088 58.6169 400.176 -0.621029 -0.196674 0.758711
-14.4392 58.6164 400.053 -0.617165 -0.22322 0.754506
-14.5795 58.6111 399.94 -0.583614 -0.194527 0.788387
-14.7196 58.6031 399.828 -0.60924 -0.147647 0.779119
-14.8601 58.5964 399.716 -0.600829 -0.125842 0.78941
-15.0063 58.5898 399.609 -0.621839 -0.117392 0.774297
-15.1446 58.581 399.496 -0.659738 -0.143942 0.737582
-15.2756 58.5803 399.373 -0.66838 -0.187016 0.719925
-15.4081 58.5779 399.253 -0.635733 -0.203181 0.744688
-15.5496 58.5726 399.142 -0.644321 -0.195017 0.739472
-15.6703 58.5761 399.009 -0.697049 -0.164674 0.697857
-15.7966 58.5776 398.882 -0.670814 -0.154714 0.725309
-15.9358 58.5722 398.769 -0.636601 -0.155569 0.755339
-16.0714 58.5685 398.652 -0.650459 -0.147997 0.744983
-16.2094 58.5656 398.537 -0.673691 -0.163417 0.720719
-16.3368 58.5659 398.41 -0.709067 -0.17327 0.683521
-16.4503 58.5744 398.272 -0.727143 -0.148752 0.670176
-16.5769 58.5769 398.144 -0.71631 -0.132285 0.685128
-16.7001 58.5797 398.014 -0.709767 -0.122748 0.69366
-16.8269 58.5829 397.887 -0.704684 -0.116493 0.699893
-16.953 58.5845 397.76 -0.7105 -0.114981 0.69424
-17.0765 58.5874 397.631 -0.714573 -0.106752 0.691368
-17.2035 58.5904 397.503 -0.750192 -0.103638 0.653048
-17.3133 58.599 397.361 -0.807308 -0.0796794 0.584726
-17.4255 58.6206 397.214 -0.821156 -0.10661 0.560658
-17.5276 58.6306 397.064 -0.773607 -0.182874 0.606704
-17.652 58.6407 396.932 -0.763053 -0.199907 0.614644
-17.7615 58.6526 396.788 -0.774895 -0.217195 0.593603
-17.876 58.6584 396.649 -0.778596 -0.212848 0.590325
-17.9711 58.6751 396.489 -0.845337 -0.128356 0.518585
-18.0715 58.6992 396.332 -0.856248 -0.0932484 0.508078
-18.1719 58.7189 396.177 -0.82511 -0.107082 0.554732
-18.2682 58.731 396.02 -0.848142 -0.080666 0.523591
-18.3704 58.7586 395.863 -0.864431 -0.115589 0.489284
-18.4631 58.7807 395.699 -0.871238 -0.138012 0.471059
-18.547 58.8031 395.528 -0.879621 -0.0986954 0.465324
-18.6518 58.8251 395.375 -0.919332 -0.0853613 0.384113
-18.7113 58.871 395.175 -0.934967 -0.122769 0.332812
-18.7953 58.9009 395.001 -0.925747 -0.186354 0.329036
-18.8541 58.9458 394.799 -0.931698 -0.159611 0.326286
-18.9393 58.9757 394.626 -0.921013 -0.158076 0.356017
-19.0161 59.0121 394.444 -0.926157 -0.185418 0.328412
-19.0863 59.0515 394.254 -0.968004 -0.160491 0.1929
-19.1233 59.1065 394.029 -0.972427 -0.195423 0.127259
-19.1579 59.1675 393.801 -0.978817 -0.160572 0.127017
-19.1946 59.2273 393.574 -0.990306 -0.124243 0.0621153
-19.2144 59.298 393.329 -0.980903 -0.174389 0.0861233
-19.2603 59.351 393.112 -0.980152 -0.188211 0.062283
-19.2635 59.4358 392.846 -0.987818 -0.151103 -0.0371823
-19.2619 59.5181 392.577 -0.98961 -0.139762 -0.0337603
-19.2757 59.5951 392.324 -0.987371 -0.145151 -0.0634788
-19.2536 59.6908 392.031 -0.985608 -0.139921 -0.0948661
-19.25 59.7785 391.759 -0.976844 -0.153473 -0.149072
-19.1935 59.882 391.428 -0.961414 -0.146792 -0.232669
-19.1204 60.0275 391.077 -0.952738 -0.154803 -0.261391
-19.0415 60.1626 390.719 -0.95023 -0.14849 -0.273887
-18.9587 60.2998 390.357 -0.939713 -0.142941 -0.310658
-18.8397 60.4605 389.954 -0.909532 -0.167368 -0.380446
0.00969924 60.7366 407.766 -0.647197 0.0404253 0.761251
-0.135813 60.7273 407.654 -0.647778 0.128551 0.750905
-0.263387 60.7289 407.525 -0.736355 0.164487 0.656296
-0.354794 60.7516 407.361 -0.763665 0.179468 0.620167
-0.48008 60.7542 407.23 -0.754349 0.142644 0.640788
-0.607707 60.7558 407.101 -0.751118 0.091928 0.653736
-0.73937 60.7547 406.976 -0.76922 0.0508295 0.63696
-0.844261 60.7642 406.824 -0.812258 0.0661393 0.579536
-0.950597 60.7838 406.675 -0.841817 0.0486351 0.537568
-1.03629 60.8007 406.505 -0.821443 0.0175286 0.570022
-1.15289 60.8221 406.366 -0.81021 0.0225911 0.585704
-1.26249 60.8309 406.219 -0.821854 -0.0209734 0.569312
-1.37032 60.8442 406.07 -0.828676 -0.0430743 0.558069
-1.45954 60.8696 405.904 -0.851296 -0.0408992 0.523089
-1.57326 60.8785 405.761 -0.792344 -0.108636 0.600324
-1.69717 60.8823 405.628 -0.763082 -0.135448 0.631949
-1.79949 60.8984 405.474 -0.808905 -0.0691778 0.583855
-1.90484 60.9078 405.323 -0.795775 -0.055668 0.603028
-2.03262 60.9142 405.194 -0.738405 -0.113687 0.664705
-2.15961 60.9117 405.064 -0.713127 -0.149151 0.684985
-2.28354 60.9176 404.932 -0.723365 -0.159883 0.671699
-2.41131 60.9186 404.803 -0.667568 -0.242751 0.703865
-2.5537 60.915 404.688 -0.614956 -0.297557 0.730266
-2.68773 60.9069 404.565 -0.523239 -0.285312 0.803006
-2.85794 60.8919 404.478 -0.370573 -0.288245 0.882944
-3.0474 60.8601 404.41 -0.286383 -0.267448 0.920031
-3.23311 60.8179 404.338 -0.156567 -0.234753 0.959363
-3.451 60.7601 404.298 -0.148563 -0.19947 0.968577
-3.66476 60.7151 404.254 -0.110274 -0.189623 0.975645
-3.90348 60.6522 404.235 -0.00433009 -0.195484 0.980697
-4.14241 60.5862 404.217 0.054721 -0.160973 0.985441
-6.91758 59.771 404.176 -0.0426902 -0.0508256 0.997795
-7.15142 59.7077 404.156 -0.170123 -0.035885 0.984769
-7.35026 59.6656 404.1 -0.183772 -0.0591601 0.981187
-7.57221 59.6094 404.068 -0.137958 -0.10979 0.984334
-7.76686 59.5698 404.008 -0.132955 -0.0806156 0.987838
-8.00945 59.501 403.997 -0.187523 -0.0849733 0.978578
-8.20361 59.4632 403.937 -0.205824 -0.15256 0.966624
-8.41721 59.4103 403.898 -0.191944 -0.15443 0.969179
-8.61212 59.3704 403.839 -0.24411 -0.147102 0.958526
-8.81372 59.3264 403.787 -0.248483 -0.100605 0.963398
-8.99016 59.2977 403.71 -0.35248 -0.0521901 0.934363
-9.18248 59.2588 403.649 -0.321166 -0.127048 0.938462
-9.37487 59.2218 403.588 -0.301915 -0.176413 0.93687
-9.55412 59.1921 403.514 -0.306465 -0.157332 0.93879
-9.75072 59.1491 403.458 -0.320565 -0.144157 0.936193
-9.92049 59.1244 403.375 -0.328426 -0.136495 0.934615
-10.1158 59.084 403.318 -0.321069 -0.155229 0.934248
-10.2852 59.0595 403.234 -0.348376 -0.144486 0.926152
-10.4824 59.0178 403.179 -0.361875 -0.13202 0.922831
-10.6431 58.9986 403.087 -0.431 -0.108893 0.895757
-10.8147 58.974 403.006 -0.511503 -0.124173 0.850262
-10.9629 58.96 402.901 -0.593245 -0.172847 0.786247
-11.095 58.9593 402.78 -0.506874 -0.160664 0.846916
-11.2652 58.9342 402.698 -0.462083 -0.147463 0.874491
-11.4273 58.917 402.607 -0.49622 -0.149435 0.85524
-11.5903 58.8927 402.518 -0.556103 -0.18823 0.809518
-11.7225 58.8914 402.397 -0.601999 -0.202028 0.772517
-11.8737 58.8812 402.294 -0.60714 -0.181333 0.773627
-12.012 58.8758 402.18 -0.64947 -0.205988 0.731955
-12.1393 58.8707 402.055 -0.633394 -0.226508 0.739936
-12.2781 58.8658 401.94 -0.593859 -0.21911 0.774159
-12.4248 58.8565 401.834 -0.621293 -0.233476 0.747987
-12.5579 58.8544 401.714 -0.646664 -0.268326 0.714022
-12.6882 58.8534 401.591 -0.651369 -0.260298 0.712715
-12.8208 58.8526 401.47 -0.676546 -0.240899 0.695883
-12.9473 58.8539 401.343 -0.686766 -0.247155 0.683569
-13.0756 58.8547 401.218 -0.674792 -0.280191 0.682751
-13.2016 58.8535 401.091 -0.636323 -0.300704 0.710402
-13.3412 58.8475 400.977 -0.632473 -0.278751 0.722687
-13.4724 58.8472 400.856 -0.627337 -0.278299 0.727322
-13.6109 58.844 400.742 -0.546941 -0.309422 0.77789
-13.7572 58.8281 400.636 -0.540614 -0.29958 0.786122
-13.903 58.8226 400.528 -0.588708 -0.259941 0.765411
-14.0418 58.8196 400.414 -0.603908 -0.230681 0.762943
-14.1817 58.8122 400.301 -0.56667 -0.212326 0.796117
-14.3353 58.7968 400.203 -0.602977 -0.17439 0.778464
-14.4654 58.7948 400.08 -0.649099 -0.156077 0.74452
-14.6038 58.7892 399.966 -0.627177 -0.166486 0.760876
-14.7367 58.7879 399.845 -0.625084 -0.165753 0.762755
-14.8766 58.7836 399.733 -0.605613 -0.148822 0.781719
-15.0177 58.7786 399.62 -0.600486 -0.116836 0.791054
-15.1626 58.7623 399.515 -0.627887 -0.128266 0.767662
-15.3008 58.7584 399.4 -0.659516 -0.157205 0.735068
-15.4305 58.7535 399.277 -0.649639 -0.146544 0.745986
-15.5655 58.7517 399.16 -0.675027 -0.132746 0.725753
-15.6937 58.7575 399.033 -0.705469 -0.152416 0.692158
-15.8224 58.7581 398.908 -0.667426 -0.175511 0.723698
-15.9542 58.7574 398.787 -0.640457 -0.174985 0.747794
-16.0906 58.7551 398.67 -0.638337 -0.148873 0.755224
-16.2259 58.7481 398.555 -0.67178 -0.109038 0.732682
-16.3524 58.7496 398.427 -0.733613 -0.0788898 0.674973
-16.4724 58.758 398.293 -0.743309 -0.0793379 0.664227
-16.592 58.7625 398.159 -0.726232 -0.0864939 0.681987
-16.7154 58.7685 398.028 -0.715318 -0.108578 0.690313
-16.8411 58.7708 397.901 -0.704674 -0.130613 0.697406
-16.9672 58.7724 397.774 -0.715904 -0.12261 0.687349
-17.0887 58.7776 397.641 -0.718192 -0.0846877 0.690673
-17.2162 58.7797 397.513 -0.766699 -0.0782111 0.637225
-17.3135 58.7995 397.36 -0.790213 -0.0951556 0.605399
-17.4391 58.805 397.229 -0.776372 -0.116791 0.61936
-17.5555 58.81 397.092 -0.76482 -0.16166 0.623632
-17.6735 58.8196 396.955 -0.753132 -0.18346 0.631771
-17.791 58.825 396.818 -0.784248 -0.136715 0.605197
-17.8959 58.8474 396.667 -0.836486 -0.0829551 0.541674
-17.9852 58.8652 396.502 -0.865566 -0.0788909 0.494542
-18.0774 58.8918 396.337 -0.849992 -0.0588465 0.523498
-18.1798 58.9107 396.183 -0.839756 -0.0820793 0.536724
-18.2826 58.9266 396.031 -0.826709 -0.132132 0.546894
-18.3946 58.9365 395.888 -0.850632 -0.16548 0.499041
-18.4796 58.9739 395.714 -0.888573 -0.15135 0.433049
-18.5669 58.994 395.545 -0.883813 -0.124121 0.451075
-18.6466 59.0261 395.367 -0.903369 -0.102236 0.4165
-18.7377 59.051 395.201 -0.912263 -0.134368 0.386939
-18.8235 59.0778 395.03 -0.93593 -0.164061 0.311638
-18.8738 59.1301 394.819 -0.93352 -0.153149 0.32417
-18.9646 59.1515 394.653 -0.909817 -0.16653 0.380133
-19.0326 59.1895 394.462 -0.933445 -0.146874 0.327275
-19.105 59.2276 394.274 -0.960397 -0.149633 0.235047
-19.1534 59.2826 394.06 -0.982375 -0.148512 0.113504
-19.1753 59.3536 393.817 -0.985704 -0.124403 0.113633
-19.2191 59.409 393.598 -0.987184 -0.125127 0.0990527
-19.2434 59.4715 393.359 -0.981254 -0.161912 0.104525
-19.2915 59.5297 393.143 -0.988584 -0.137503 0.0615951
-19.2934 59.6118 392.878 -0.991155 -0.127266 -0.0376095
-19.2925 59.6983 392.61 -0.987222 -0.156236 -0.0313486
-19.2984 59.7736 392.348 -0.988943 -0.135079 -0.0612032
-19.2805 59.8716 392.058 -0.987887 -0.134775 -0.0769049
-19.2857 59.9493 391.795 -0.979082 -0.147685 -0.139958
-19.2273 60.0736 391.461 -0.965871 -0.135194 -0.220943
-19.178 60.1894 391.137 -0.948815 -0.169002 -0.266809
-19.076 60.3307 390.755 -0.937532 -0.197297 -0.286546
-19.0123 60.4645 390.412 -0.939005 -0.175606 -0.295688
-18.9168 60.6092 390.034 -0.91278 -0.156073 -0.377457
-0.348527 60.9545 407.358 -0.752239 -0.0180335 0.658644
-0.475779 60.9545 407.229 -0.724101 -0.00892962 0.689636
-0.596298 60.9603 407.093 -0.723482 0.0308675 0.689653
-0.717249 60.9665 406.957 -0.776896 0.0849369 0.623874
-0.814549 60.985 406.799 -0.794609 0.120869 0.594968
-0.940003 60.9876 406.668 -0.820941 0.0754526 0.566006
-1.03691 61.0018 406.508 -0.825188 0.0051609 0.564835
-1.15359 61.0157 406.369 -0.783478 -0.00568464 0.621393
-1.26396 61.0275 406.223 -0.807009 0.00408078 0.590525
-1.36911 61.0442 406.072 -0.829649 -0.0321714 0.557358
-1.48054 61.0572 405.927 -0.813845 -0.066199 0.577298
-1.59479 61.0675 405.785 -0.776001 -0.0905188 0.624203
-1.70224 61.077 405.636 -0.808429 -0.055735 0.585949
-1.80128 61.0942 405.479 -0.817852 -0.0405502 0.573998
-1.91928 61.1043 405.34 -0.75769 -0.108671 0.643503
-2.04184 61.1077 405.206 -0.71123 -0.152126 0.686301
-2.16999 61.109 405.077 -0.704678 -0.153742 0.69267
-2.30107 61.1094 404.951 -0.663316 -0.163393 0.730283
-2.45691 61.0969 404.85 -0.635993 -0.179839 0.750447
-2.58598 61.0942 404.722 -0.637875 -0.215735 0.739306
-2.72959 61.0886 404.609 -0.516325 -0.251837 0.818527
-2.90177 61.0582 404.523 -0.386452 -0.26677 0.882887
-3.06616 61.0322 404.43 -0.30523 -0.241215 0.921222
-3.27411 60.996 404.381 -0.185181 -0.232304 0.954852
-3.48662 60.9448 404.335 -0.144325 -0.231271 0.962125
-3.69571 60.8963 404.287 -0.0917744 -0.193928 0.976714
-3.93572 60.8299 404.269 -0.0268155 -0.184728 0.982424
-4.17314 60.7666 404.25 0.0166562 -0.188364 0.981958
-4.43038 60.688 404.25 0.00194672 -0.160479 0.987037
-4.66494 60.622 404.227 0.0557948 -0.152827 0.986677
-6.45745 60.0896 404.228 -0.038553 -0.115147 0.9926
-6.66665 60.0413 404.182 -0.107829 -0.0295275 0.993731
-6.90719 59.9739 404.168 -0.0676784 -0.0119402 0.997636
-7.13376 59.9149 404.14 -0.158353 -0.00563955 0.987366
-7.35079 59.8617 404.102 -0.146387 -0.0296964 0.988782
-7.5933 59.793 404.091 -0.175632 -0.0595789 0.982651
-7.78643 59.7543 404.029 -0.128715 -0.093213 0.987291
-8.03645 59.6808 404.026 -0.132716 -0.0889933 0.987151
-8.22753 59.6417 403.963 -0.218157 -0.091762 0.97159
-8.4439 59.5902 403.926 -0.214837 -0.102634 0.971242
-8.63394 59.5533 403.862 -0.29937 -0.087846 0.950084
-8.80831 59.5263 403.783 -0.297257 -0.0916786 0.950386
-9.01729 59.4772 403.739 -0.279603 -0.0856126 0.956291
-9.21271 59.4368 403.681 -0.285151 -0.0929038 0.95397
-9.40092 59.3998 403.616 -0.32924 -0.126831 0.935689
-9.57693 59.3705 403.539 -0.32392 -0.136505 0.936185
-9.76258 59.3378 403.471 -0.339231 -0.0904039 0.936349
-9.94399 59.3059 403.4 -0.322119 -0.0829066 0.943062
-10.142 59.2638 403.345 -0.338927 -0.123295 0.932699
-10.3082 59.2412 403.258 -0.367051 -0.110131 0.923658
-10.4885 59.2099 403.186 -0.397387 -0.0640462 0.915414
-10.6496 59.1905 403.094 -0.422408 -0.0927312 0.90165
-10.8371 59.1527 403.03 -0.470742 -0.127181 0.873056
-10.9786 59.1472 402.918 -0.60551 -0.135478 0.784221
-11.1252 59.1368 402.812 -0.512105 -0.192959 0.836968
-11.2953 59.112 402.729 -0.448866 -0.214499 0.867473
-11.4454 59.0955 402.627 -0.458055 -0.181956 0.870102
-11.6206 59.0707 402.549 -0.551699 -0.148495 0.820718
-11.7498 59.07 402.425 -0.623823 -0.171822 0.762445
-11.8921 59.0632 402.315 -0.58239 -0.210052 0.785302
-12.036 59.0519 402.206 -0.631892 -0.213121 0.745179
-12.1704 59.0503 402.087 -0.637216 -0.232134 0.734894
-12.309 59.0446 401.972 -0.579421 -0.237457 0.77967
-12.4592 59.033 401.871 -0.583539 -0.281858 0.761602
-12.5962 59.0284 401.754 -0.638815 -0.333062 0.693531
-12.7224 59.0321 401.627 -0.655706 -0.311557 0.687737
-12.8515 59.0302 401.503 -0.665479 -0.27434 0.694172
-12.9803 59.0301 401.378 -0.659616 -0.262047 0.704442
-13.1201 59.0255 401.264 -0.659601 -0.27972 0.697626
-13.246 59.0261 401.137 -0.653987 -0.296349 0.696044
-13.375 59.0258 401.012 -0.63308 -0.27758 0.722606
-13.5132 59.0228 400.897 -0.600953 -0.275195 0.750416
-13.6627 59.0079 400.795 -0.555776 -0.306571 0.77274
-13.8063 59.0029 400.686 -0.572176 -0.315075 0.757194
-13.9385 58.9984 400.565 -0.604567 -0.29725 0.739013
-14.0747 58.9939 400.448 -0.609936 -0.270442 0.744875
-14.2118 58.9884 400.333 -0.593031 -0.245245 0.766921
-14.3441 58.9837 400.213 -0.617269 -0.183346 0.76509
-14.4838 58.9803 400.099 -0.642922 -0.135412 0.753866
-14.6211 58.9753 399.982 -0.630535 -0.142422 0.762982
-14.7645 58.9679 399.874 -0.637674 -0.169038 0.751531
-14.8923 58.9637 399.75 -0.627983 -0.17676 0.757887
-15.0339 58.9574 399.638 -0.585097 -0.168167 0.793335
-15.1829 58.9502 399.535 -0.599861 -0.164241 0.783065
-15.3193 58.9466 399.417 -0.6692 -0.143738 0.729047
-15.4417 58.9493 399.287 -0.662008 -0.127805 0.738519
-15.5857 58.9401 399.179 -0.661388 -0.11951 0.740462
-15.7133 58.9407 399.053 -0.689134 -0.147962 0.709367
-15.8434 58.9389 398.931 -0.668031 -0.171444 0.724114
-15.9785 58.9348 398.812 -0.663423 -0.154889 0.732038
-16.1057 58.9382 398.687 -0.672338 -0.129237 0.728875
-16.2326 58.9408 398.56 -0.69627 -0.0947603 0.711497
-16.3562 58.9446 398.43 -0.734181 -0.0514394 0.677003
-16.4747 58.9527 398.294 -0.739548 -0.0348234 0.672202
-16.6005 58.9542 398.167 -0.711047 -0.0587289 0.700687
-16.7352 58.9526 398.049 -0.700058 -0.0882186 0.708615
-16.8621 58.9577 397.922 -0.712709 -0.100544 0.694217
-16.9847 58.9607 397.79 -0.744351 -0.10308 0.659785
-17.0921 58.9703 397.645 -0.720994 -0.10809 0.684459
-17.2317 58.9638 397.53 -0.753147 -0.116518 0.647451
-17.3375 58.9773 397.384 -0.775105 -0.132047 0.61788
-17.4635 58.9828 397.253 -0.745755 -0.147209 0.649753
-17.5731 58.9945 397.111 -0.752066 -0.14099 0.643831
-17.6998 58.9964 396.983 -0.790985 -0.0961903 0.604227
-17.7821 59.0148 396.812 -0.821582 -0.0715143 0.565588
-17.8999 59.0386 396.67 -0.839019 -0.0717745 0.539347
-17.9931 59.0549 396.509 -0.875946 -0.0967016 0.472617
-18.0841 59.0841 396.342 -0.835908 -0.134034 0.532252
-18.2055 59.0893 396.21 -0.808789 -0.130882 0.57335
-18.3078 59.1069 396.056 -0.802919 -0.165507 0.572651
-18.4219 59.1174 395.915 -0.857935 -0.156463 0.489353
-18.495 59.15 395.73 -0.90106 -0.139294 0.410717
-18.5859 59.1786 395.564 -0.892873 -0.134457 0.429766
-18.6734 59.2058 395.394 -0.888957 -0.113742 0.443641
-18.7676 59.2337 395.23 -0.897317 -0.138772 0.419003
-18.8357 59.2698 395.04 -0.941989 -0.133337 0.308022
-18.9031 59.3084 394.848 -0.933021 -0.119192 0.339507
-18.9841 59.3398 394.671 -0.918029 -0.135794 0.372536
-19.057 59.3807 394.483 -0.930499 -0.144578 0.336554
-19.1366 59.409 394.305 -0.959916 -0.130489 0.248059
-19.1707 59.4705 394.076 -0.989219 -0.0975365 0.109235
-19.1939 59.539 393.835 -0.987783 -0.0948012 0.123681
-19.2435 59.5908 393.622 -0.982187 -0.142218 0.122808
-19.2731 59.6554 393.388 -0.98304 -0.159751 0.0900614
-19.2973 59.7235 393.147 -0.99308 -0.0875902 0.0782256
-19.3226 59.783 392.908 -0.9979 -0.0647684 -0.000321253
-19.3171 59.8692 392.634 -0.991185 -0.127875 -0.0346388
-19.3245 59.9574 392.373 -0.987336 -0.14546 -0.0633104
-19.3119 60.0516 392.09 -0.983998 -0.163889 -0.0699156
-19.3172 60.1302 391.827 -0.978638 -0.151326 -0.139167
-19.2582 60.2536 391.494 -0.966913 -0.156264 -0.201644
-19.2305 60.3546 391.191 -0.951756 -0.17523 -0.251903
-19.1384 60.5054 390.822 -0.926487 -0.224475 -0.302047
-19.0518 60.6379 390.454 -0.929705 -0.213132 -0.300371
-18.9478 60.7893 390.067 -0.929829 -0.107908 -0.351816
-0.595782 61.1582 407.095 -0.761422 0.0713791 0.644315
-0.695073 61.1763 406.939 -0.798968 0.111897 0.590872
-0.808579 61.1861 406.796 -0.764254 0.106654 0.636035
-0.935498 61.1882 406.666 -0.771296 0.103317 0.628035
-1.04306 61.2053 406.518 -0.809784 0.100224 0.578105
-1.14368 61.2191 406.363 -0.786242 0.0614318 0.614857
-1.26435 61.2232 406.226 -0.781284 0.0427597 0.62271
-1.38211 61.2283 406.087 -0.809132 -0.00244044 0.587622
-1.47976 61.2443 405.929 -0.799444 -0.0216663 0.60035
-1.59763 61.2609 405.791 -0.798366 -0.0148922 0.601988
-1.69945 61.2764 405.636 -0.815919 0.0195252 0.577836
-1.81561 61.2834 405.496 -0.775246 -0.00499974 0.631639
-1.94351 61.2863 405.367 -0.729337 -0.0794278 0.679528
-2.07132 61.2879 405.237 -0.713487 -0.112502 0.691577
-2.19912 61.2894 405.108 -0.700464 -0.120376 0.703462
-2.32746 61.2905 404.98 -0.655224 -0.112492 0.747012
-2.45931 61.2897 404.855 -0.615315 -0.104531 0.78132
-2.61574 61.2738 404.754 -0.61623 -0.139543 0.775105
-2.75664 61.2668 404.638 -0.504969 -0.198423 0.840021
-2.93272 61.24 404.556 -0.417468 -0.184738 0.889715
-3.10553 61.2163 404.472 -0.312502 -0.182776 0.932167
-3.3118 61.1633 404.42 -0.186668 -0.219073 0.957686
-3.51429 61.1242 404.365 -0.175802 -0.213228 0.961056
-3.72615 61.0755 404.319 -0.0958185 -0.174903 0.979912
-3.96598 61.0077 404.302 -0.0289631 -0.147539 0.988632
-4.21065 60.9382 404.289 -0.0125606 -0.1683 0.985656
-4.44207 60.8787 404.263 -0.000188782 -0.15172 0.988423
-4.7052 60.8085 404.269 0.00825802 -0.116012 0.993214
-6.46731 60.2804 404.239 -0.138904 -0.0174332 0.990152
-6.66908 60.2365 404.186 -0.124521 -0.0230133 0.99195
-6.91878 60.1635 404.181 -0.0770963 0.00401144 0.997016
-7.14869 60.1024 404.156 -0.128808 -0.0405566 0.99084
-7.36797 60.0478 404.121 -0.107472 -0.0862548 0.990459
-7.58881 59.9933 404.087 -0.14083 -0.0748345 0.987201
-7.80774 59.9377 404.052 -0.135927 -0.0796048 0.987516
-8.02318 59.886 404.014 -0.139339 -0.0688765 0.987846
-8.24304 59.8301 403.98 -0.21334 -0.0701668 0.974455
-8.4376 59.7903 403.921 -0.237918 -0.0732407 0.96852
-8.64062 59.7454 403.87 -0.304407 -0.0448277 0.951487
-8.83639 59.7044 403.812 -0.308109 -0.0614696 0.949363
-9.01566 59.6743 403.738 -0.276469 -0.0705979 0.958426
-9.20932 59.635 403.678 -0.271341 -0.0267732 0.962111
-9.41817 59.5863 403.634 -0.339085 -0.0275997 0.940351
-9.58628 59.5626 403.549 -0.379472 -0.0654156 0.922888
-9.76819 59.5304 403.478 -0.345714 -0.0879989 0.934204
-9.94924 59.4994 403.406 -0.282375 -0.106066 0.953422
-10.1555 59.4515 403.36 -0.356781 -0.100188 0.9288
-10.3059 59.4387 403.257 -0.413562 -0.0921415 0.905802
-10.4962 59.4011 403.195 -0.367998 -0.087908 0.925662
-10.6793 59.368 403.125 -0.394018 -0.0894683 0.914738
-10.8457 59.3452 403.039 -0.470333 -0.109371 0.875685
-11.0019 59.3307 402.942 -0.557584 -0.122047 0.8211
-11.156 59.3093 402.844 -0.493001 -0.180892 0.851016
-11.3153 59.2911 402.751 -0.484328 -0.180358 0.856095
-11.4721 59.2773 402.653 -0.497379 -0.14204 0.855827
-11.6223 59.2639 402.552 -0.539561 -0.0951371 0.836554
-11.7784 59.2486 402.455 -0.601934 -0.0801673 0.794512
-11.9244 59.2386 402.348 -0.585629 -0.179884 0.790367
-12.0682 59.2302 402.239 -0.613218 -0.235816 0.753893
-12.2013 59.2293 402.118 -0.631682 -0.233426 0.73925
-12.3387 59.2221 402.003 -0.54324 -0.229228 0.807679
-12.5068 59.1961 401.92 -0.544394 -0.26886 0.794575
-12.6423 59.1923 401.8 -0.661902 -0.306468 0.684078
-12.7593 59.198 401.665 -0.689046 -0.288774 0.664699
-12.8861 59.1969 401.538 -0.675866 -0.270234 0.685696
-13.0117 59.1984 401.411 -0.645741 -0.262989 0.716837
-13.1495 59.1958 401.295 -0.65135 -0.254867 0.714693
-13.2762 59.2016 401.169 -0.676611 -0.256582 0.690191
-13.4073 59.2013 401.047 -0.63505 -0.274637 0.722002
-13.5462 59.1956 400.932 -0.57312 -0.275389 0.771812
-13.6926 59.1835 400.826 -0.564492 -0.236696 0.790774
-13.8349 59.1751 400.716 -0.61036 -0.204257 0.765336
-13.9764 59.1693 400.603 -0.641267 -0.218717 0.735486
-14.1047 59.1696 400.48 -0.636086 -0.235397 0.734835
-14.2425 59.1643 400.364 -0.647935 -0.217459 0.729994
-14.3692 59.1684 400.238 -0.653184 -0.202713 0.729561
-14.5027 59.1644 400.117 -0.631613 -0.180943 0.753874
-14.6416 59.159 400.004 -0.607224 -0.15732 0.7788
-14.7865 59.1489 399.897 -0.634617 -0.142415 0.759592
-14.9177 59.148 399.775 -0.63567 -0.164514 0.754227
-15.0644 59.1423 399.668 -0.588669 -0.172063 0.78985
-15.2015 59.1302 399.555 -0.621945 -0.127535 0.772605
-15.3368 59.1285 399.436 -0.684816 -0.105719 0.721007
-15.463 59.13 399.309 -0.667325 -0.144477 0.730619
-15.5982 59.128 399.191 -0.633058 -0.170801 0.755027
-15.7399 59.1238 399.08 -0.669338 -0.162828 0.724896
-15.8658 59.1253 398.953 -0.681746 -0.161696 0.713496
-15.9919 59.1253 398.825 -0.684718 -0.137249 0.715767
-16.1209 59.1279 398.701 -0.699284 -0.117908 0.705052
-16.2474 59.131 398.574 -0.727305 -0.1133 0.676898
-16.3614 59.1384 398.434 -0.743294 -0.116076 0.658817
-16.484 59.1412 398.303 -0.717949 -0.12687 0.684437
-16.6137 59.1441 398.179 -0.683895 -0.132448 0.717458
-16.7426 59.1446 398.054 -0.689105 -0.110333 0.716213
-16.8677 59.1474 397.928 -0.710982 -0.0992473 0.696172
-16.9961 59.1485 397.801 -0.739976 -0.122124 0.661454
-17.1185 59.1513 397.671 -0.712079 -0.137743 0.688456
-17.2488 59.1516 397.546 -0.742949 -0.116305 0.659166
-17.3507 59.1668 397.398 -0.76753 -0.0954933 0.633861
-17.4795 59.1714 397.268 -0.75306 -0.104512 0.649598
-17.5897 59.1807 397.126 -0.784988 -0.0887521 0.61312
-17.6913 59.2009 396.971 -0.806664 -0.0682244 0.58706
-17.8131 59.2041 396.839 -0.819903 -0.125644 0.558545
-17.9143 59.2277 396.683 -0.822006 -0.142169 0.551447
-18.022 59.2389 396.537 -0.855842 -0.149509 0.495158
-18.1143 59.2614 396.373 -0.834426 -0.181421 0.520404
-18.2135 59.2816 396.216 -0.786317 -0.151906 0.598857
-18.3365 59.2851 396.085 -0.808721 -0.136662 0.572096
-18.4261 59.3114 395.918 -0.866864 -0.104946 0.487374
-18.5259 59.3307 395.762 -0.904745 -0.0955176 0.415107
-18.5952 59.3694 395.572 -0.903228 -0.0893308 0.41976
-18.6829 59.3965 395.402 -0.877611 -0.0820845 0.472294
-18.779 59.4133 395.243 -0.898769 -0.0792544 0.4312
-18.8605 59.4479 395.066 -0.948237 -0.0944799 0.303182
-18.907 59.5028 394.85 -0.92834 -0.118112 0.352469
-19.0103 59.5202 394.697 -0.91546 -0.1095 0.387225
-19.0718 59.56 394.5 -0.934812 -0.114061 0.33633
-19.1464 59.5999 394.314 -0.9668 -0.0987723 0.235672
-19.1793 59.6622 394.083 -0.989466 -0.0988301 0.105781
-19.2138 59.7237 393.854 -0.978851 -0.138612 0.150459
-19.2753 59.7735 393.654 -0.978274 -0.15449 0.13825
-19.2963 59.8381 393.411 -0.988386 -0.147177 0.0378357
-19.3009 59.9188 393.148 -0.990682 -0.125884 0.0519799
-19.3333 59.9818 392.916 -0.993853 -0.104135 0.0375688
-19.3497 60.0553 392.666 -0.990426 -0.13632 -0.021764
-19.3547 60.1388 392.402 -0.985822 -0.159037 -0.0534992
-19.3524 60.2216 392.132 -0.983016 -0.169353 -0.0707043
-19.3426 60.3121 391.852 -0.980556 -0.149511 -0.127108
-19.314 60.4115 391.55 -0.970428 -0.15761 -0.182832
-19.2639 60.5309 391.227 -0.959584 -0.179512 -0.216736
-19.2285 60.6377 390.915 -0.934986 -0.191259 -0.298697
-19.0874 60.8136 390.491 -0.92736 -0.177247 -0.329526
-18.9791 60.9713 390.1 -0.927074 -0.140368 -0.347607
-0.794482 61.3923 406.786 -0.752158 0.176854 0.634808
-0.892331 61.4118 406.627 -0.766855 0.12474 0.629582
-1.01844 61.4139 406.497 -0.779644 0.130904 0.612389
-1.13011 61.425 406.352 -0.765825 0.128635 0.630051
-1.25724 61.4271 406.222 -0.748043 0.0650204 0.660457
-1.37232 61.4359 406.081 -0.793535 0.0538415 0.606138
-1.48475 61.4468 405.937 -0.799308 0.0533012 0.598553
-1.5943 61.4592 405.79 -0.814926 0.0602986 0.57642
-1.6869 61.4818 405.627 -0.800509 0.0254596 0.598779
-1.81451 61.4835 405.497 -0.723491 -0.011149 0.690244
-1.94463 61.4836 405.37 -0.707311 -0.00182153 0.7069
-2.07254 61.4851 405.241 -0.711678 -0.0258096 0.702032
-2.19951 61.4871 405.111 -0.709662 -0.0684301 0.701211
-2.32743 61.4886 404.982 -0.663058 -0.0858583 0.743628
-2.48209 61.4739 404.88 -0.588149 -0.0863159 0.804133
-2.63082 61.4631 404.771 -0.57079 -0.0925579 0.815863
-2.78707 61.4472 404.67 -0.524361 -0.123829 0.842444
-2.94237 61.4321 404.568 -0.421772 -0.135182 0.896568
-3.12807 61.3967 404.496 -0.276397 -0.141644 0.950548
-3.343 61.3475 404.453 -0.210992 -0.134547 0.968184
-3.54482 61.3042 404.397 -0.22215 -0.124811 0.966991
-3.74825 61.2599 404.343 -0.125471 -0.124369 0.984271
-3.98181 61.1974 404.319 -0.0320006 -0.0762119 0.996578
-4.24118 61.1191 404.321 -0.0587215 -0.0457333 0.997226
-4.46639 61.0614 404.289 -0.0500846 -0.072841 0.996085
-4.70847 60.987 404.274 -0.0219293 -0.102337 0.994508
-6.46941 60.4759 404.243 -0.143578 0.0209542 0.989417
-6.66491 60.4359 404.183 -0.15265 -0.00736499 0.988253
-6.90003 60.3722 404.164 -0.0349585 -0.0240191 0.9991
-7.16337 60.2902 404.172 -0.0945503 -0.0267274 0.995161
-7.37473 60.2403 404.129 -0.135123 -0.0222722 0.990578
-7.61419 60.1722 404.115 -0.155167 0.000584505 0.987888
-7.81371 60.1305 404.06 -0.17219 0.0312816 0.984567
-8.05041 60.0644 404.043 -0.15264 -0.0211754 0.988055
-8.25394 60.0198 403.992 -0.219315 -0.0343858 0.975048
-8.45936 59.9734 403.944 -0.27705 -0.0156407 0.960728
-8.64202 59.9408 403.873 -0.292369 -0.0300502 0.955833
-8.83361 59.9028 403.811 -0.317802 0.0431569 0.947174
-9.03142 59.8609 403.755 -0.335594 0.0336696 0.941405
-9.2118 59.8297 403.682 -0.262937 -0.0665686 0.962514
-9.41537 59.7842 403.633 -0.296345 -0.0758107 0.952068
-9.59787 59.7517 403.562 -0.359163 -0.0589407 0.931412
-9.79033 59.7129 403.501 -0.32404 -0.101207 0.940614
-9.97653 59.6773 403.435 -0.287249 -0.122636 0.949973
-10.1645 59.642 403.37 -0.367078 -0.0940796 0.92542
-10.3353 59.6164 403.288 -0.417274 -0.0843199 0.90486
-10.5096 59.5889 403.209 -0.368467 -0.0818841 0.926027
-10.6772 59.5653 403.124 -0.387112 -0.0400536 0.921162
-10.8679 59.5275 403.062 -0.472101 -0.0293832 0.881055
-11.0115 59.5187 402.953 -0.51181 -0.0688664 0.856334
-11.1869 59.4903 402.876 -0.508327 -0.079801 0.857459
-11.3279 59.4799 402.764 -0.530763 -0.0993478 0.841677
-11.4887 59.4679 402.671 -0.547798 -0.0865847 0.832118
-11.6286 59.4571 402.558 -0.559085 -0.0447842 0.8279
-11.7838 59.4423 402.461 -0.521757 -0.0545946 0.851346
-11.9496 59.4126 402.375 -0.554267 -0.0622238 0.83001
-12.097 59.4066 402.269 -0.631298 -0.109144 0.767822
-12.2278 59.4058 402.146 -0.638856 -0.193509 0.744592
-12.3697 59.4016 402.035 -0.511582 -0.222568 0.829908
-12.5359 59.3757 401.95 -0.531577 -0.192439 0.824859
-12.6725 59.3698 401.833 -0.697424 -0.175457 0.694848
-12.79 59.378 401.698 -0.718762 -0.18382 0.670516
-12.9202 59.3799 401.572 -0.693248 -0.193933 0.694116
-13.0456 59.3814 401.445 -0.660021 -0.21497 0.719834
-13.1836 59.3764 401.33 -0.657006 -0.213648 0.722978
-13.3117 59.3764 401.205 -0.667311 -0.232098 0.707691
-13.4477 59.373 401.088 -0.634121 -0.270037 0.724548
-13.5794 59.3687 400.966 -0.606482 -0.265664 0.749401
-13.7166 59.3661 400.851 -0.594698 -0.225326 0.771727
-13.8551 59.3579 400.738 -0.604416 -0.172178 0.777841
-13.999 59.349 400.627 -0.63782 -0.149074 0.75562
-14.1332 59.3498 400.509 -0.660834 -0.160285 0.733217
-14.2641 59.3473 400.386 -0.665958 -0.172277 0.725824
-14.3962 59.3456 400.266 -0.670356 -0.201199 0.714242
-14.5258 59.3455 400.142 -0.644859 -0.216601 0.732967
-14.66 59.3407 400.024 -0.616295 -0.182569 0.766061
-14.7985 59.3371 399.909 -0.614751 -0.159434 0.772439
-14.9444 59.3278 399.802 -0.629251 -0.161904 0.760151
-15.073 59.3283 399.678 -0.628492 -0.153755 0.762468
-15.2116 59.3224 399.564 -0.64067 -0.123414 0.757833
-15.3463 59.3189 399.445 -0.654601 -0.111295 0.747738
-15.49 59.3124 399.336 -0.648515 -0.12464 0.750928
-15.627 59.3091 399.22 -0.642453 -0.144847 0.752512
-15.7568 59.3053 399.098 -0.670208 -0.164391 0.723739
-15.884 59.3065 398.971 -0.699828 -0.172295 0.693221
-16.0116 59.3134 398.844 -0.698065 -0.157829 0.698423
-16.1376 59.315 398.717 -0.702115 -0.123103 0.701342
-16.2621 59.3167 398.59 -0.726198 -0.103217 0.679693
-16.3892 59.3175 398.461 -0.735729 -0.123762 0.665872
-16.5094 59.3237 398.329 -0.711326 -0.155022 0.685554
-16.6353 59.3227 398.201 -0.699051 -0.149472 0.699276
-16.7588 59.3261 398.072 -0.697153 -0.119458 0.7069
-16.8906 59.3256 397.95 -0.6937 -0.101207 0.713118
-17.0196 59.3272 397.825 -0.730695 -0.0987295 0.675527
-17.1287 59.336 397.682 -0.731349 -0.0847897 0.676712
-17.2572 59.3424 397.554 -0.758885 -0.0562318 0.648793
-17.365 59.3546 397.41 -0.762234 -0.0569705 0.64479
-17.4946 59.3645 397.281 -0.764042 -0.0745541 0.640845
-17.5932 59.3762 397.127 -0.798086 -0.0911278 0.595613
-17.7193 59.3786 397 -0.763076 -0.152322 0.628102
-17.8331 59.3875 396.859 -0.806772 -0.125394 0.577404
-17.9275 59.4118 396.697 -0.817576 -0.108849 0.56544
-18.0468 59.4165 396.563 -0.840521 -0.117306 0.528927
-18.1277 59.4495 396.386 -0.855139 -0.112194 0.506112
-18.243 59.4594 396.246 -0.793393 -0.170805 0.584254
-18.3444 59.4772 396.092 -0.826687 -0.121469 0.549394
-18.4444 59.4964 395.936 -0.870692 -0.07026 0.486784
-18.5282 59.527 395.762 -0.907185 -0.0748855 0.414013
-18.6051 59.5599 395.581 -0.906532 -0.0853912 0.41341
-18.7022 59.5833 395.42 -0.877314 -0.12226 0.464082
-18.7857 59.6127 395.246 -0.889498 -0.122273 0.440276
-18.8747 59.6373 395.078 -0.941451 -0.119557 0.31524
-18.9331 59.6832 394.876 -0.928688 -0.162125 0.333549
-19.0178 59.7125 394.703 -0.912443 -0.112629 0.393399
-19.0902 59.7496 394.516 -0.938601 -0.0703229 0.337762
-19.1649 59.7852 394.332 -0.963283 -0.121567 0.239389
-19.2102 59.843 394.116 -0.98073 -0.155479 0.118304
-19.2449 59.9026 393.886 -0.971704 -0.17905 0.154057
-19.2924 59.9489 393.671 -0.976598 -0.163534 0.13969
-19.3277 60.0191 393.442 -0.990355 -0.136419 0.0242199
-19.3318 60.0987 393.18 -0.986321 -0.162739 0.0261957
-19.3642 60.1632 392.949 -0.976906 -0.210044 0.0391882
-19.3806 60.237 392.699 -0.985387 -0.169977 -0.0110029
-19.3847 60.3147 392.434 -0.985265 -0.164762 -0.0458971
-19.3813 60.3909 392.163 -0.975708 -0.200906 -0.0873498
-19.3713 60.4945 391.88 -0.980534 -0.157761 -0.116899
-19.3451 60.5932 391.583 -0.979461 -0.128282 -0.155563
-19.3096 60.6943 391.273 -0.970359 -0.154347 -0.185957
-19.2595 60.8174 390.948 -0.951808 -0.126684 -0.279306
-19.1295 60.9814 390.534 -0.936822 -0.12707 -0.325911
-19.0383 61.1284 390.16 -0.926032 -0.15853 -0.342539
-1.11828 61.63 406.343 -0.72278 0.0782493 0.686634
-1.24601 61.6316 406.214 -0.730298 0.154291 0.665477
-1.36335 61.6393 406.075 -0.78443 0.129491 0.606549
-1.46147 61.6585 405.917 -0.801178 0.0765497 0.593509
-1.57508 61.6687 405.774 -0.793073 0.0499672 0.607074
-1.70254 61.6704 405.645 -0.777232 0.0195628 0.62891
-1.81346 61.6821 405.499 -0.730581 -0.0109814 0.682737
-1.9413 61.6836 405.37 -0.688587 -0.0123953 0.725048
-2.08281 61.6768 405.254 -0.678825 -0.0352229 0.733454
-2.22026 61.6725 405.134 -0.696222 -0.0802634 0.713325
-2.34814 61.6741 405.005 -0.66131 -0.103303 0.742965
-2.48083 61.6728 404.881 -0.583556 -0.0767403 0.808439
-2.63961 61.65 404.782 -0.547753 -0.0433848 0.835515
-2.79538 61.6402 404.68 -0.515506 -0.0818655 0.852966
-2.96514 61.6163 404.593 -0.410533 -0.123721 0.903413
-3.15247 61.5818 404.522 -0.286006 -0.10711 0.952223
-3.34352 61.5451 404.456 -0.235477 -0.0676388 0.969523
-3.55508 61.4959 404.41 -0.235279 -0.0372971 0.971212
-3.7619 61.4495 404.359 -0.180143 -0.0535731 0.98218
-3.97891 61.3969 404.319 -0.0630735 -0.0566177 0.996402
-4.22366 61.3274 404.306 -0.0421046 -0.0273535 0.998739
-4.47476 61.254 404.3 -0.0390974 -0.0233431 0.998963
-4.73956 61.1721 404.307 -0.0250469 -0.0309997 0.999206
-4.98259 61.1035 404.294 0.0209322 -0.0431294 0.99885
-5.2493 61.0204 404.304 -0.00175773 -0.043421 0.999055
-5.47145 60.9643 404.27 -0.0344882 -0.0303794 0.998943
-5.74405 60.8775 404.286 -0.00656672 -0.0144589 0.999874
-5.96894 60.8196 404.255 -0.0680487 -0.011676 0.997614
-6.21955 60.7461 404.25 -0.0334411 -0.0559712 0.997872
-6.46378 60.6763 404.239 -0.111974 -0.0083039 0.993676
-6.67197 60.6285 404.192 -0.148749 0.0391488 0.9881
-6.92772 60.5511 404.193 -0.0335428 -0.0242346 0.999143
-7.15304 60.4932 404.164 -0.113855 0.0310864 0.993011
-7.37367 60.4377 404.13 -0.1781 0.0744153 0.981195
-7.57757 60.3923 404.079 -0.194276 0.0516288 0.979587
-7.79251 60.3401 404.04 -0.137045 0.0674799 0.988264
-8.04795 60.2631 404.041 -0.165307 0.0730612 0.983532
-8.23602 60.2273 403.975 -0.264585 0.106762 0.958434
-8.45044 60.1753 403.936 -0.286905 0.107477 0.951911
-8.64253 60.1369 403.875 -0.377631 0.0718129 0.923167
-8.80371 60.1175 403.782 -0.305143 0.0238761 0.952007
-9.02405 60.0618 403.749 -0.235964 -0.0147815 0.971649
-9.23842 60.0096 403.71 -0.266071 -0.0172542 0.963799
-9.43141 59.9706 403.65 -0.329326 0.0124976 0.944133
-9.60467 59.9437 403.57 -0.326838 -0.0215033 0.944836
-9.8062 59.8993 403.519 -0.306351 -0.0842353 0.948184
-9.98081 59.8715 403.44 -0.324849 -0.0799556 0.94238
-10.1754 59.8312 403.382 -0.38882 -0.0233419 0.921018
-10.3313 59.8151 403.285 -0.431389 0.0117684 0.902089
-10.5156 59.7812 403.216 -0.416169 -0.0262385 0.908909
-10.681 59.759 403.129 -0.396213 -0.0498252 0.916806
-10.8588 59.7291 403.054 -0.441309 0.00584616 0.897336
-11.0247 59.7062 402.967 -0.507966 -0.012009 0.861293
-11.1753 59.693 402.865 -0.498119 -0.0198341 0.866882
-11.3492 59.6663 402.786 -0.551987 0.0123816 0.833761
-11.4841 59.6636 402.667 -0.587551 -0.0414409 0.808125
-11.6331 59.6459 402.564 -0.548361 -0.053305 0.834541
-11.7959 59.6285 402.474 -0.514343 -0.0628695 0.855277
-11.9382 59.6108 402.365 -0.515909 -0.055219 0.854862
-12.1095 59.5957 402.282 -0.56625 -0.0475939 0.822858
-12.2589 59.5865 402.178 -0.622497 -0.108896 0.775009
-12.3961 59.5763 402.063 -0.547317 -0.178884 0.817584
-12.5486 59.56 401.963 -0.555272 -0.15092 0.81786
-12.6897 59.5562 401.851 -0.696991 -0.111455 0.708366
-12.806 59.5629 401.714 -0.716419 -0.142152 0.683035
-12.9401 59.562 401.593 -0.682716 -0.149588 0.715208
-13.0696 59.5624 401.471 -0.665933 -0.178443 0.724356
-13.2022 59.5595 401.35 -0.64442 -0.199111 0.738293
-13.3419 59.5528 401.237 -0.642086 -0.201374 0.739712
-13.4778 59.5492 401.12 -0.645017 -0.225855 0.730029
-13.61 59.5474 400.998 -0.643445 -0.237718 0.727646
-13.7444 59.5455 400.88 -0.636351 -0.234419 0.734918
-13.8726 59.5425 400.755 -0.617842 -0.211901 0.757212
-14.0155 59.538 400.645 -0.625447 -0.180303 0.759149
-14.1484 59.5353 400.524 -0.65214 -0.15587 0.741901
-14.2876 59.5286 400.411 -0.647175 -0.141653 0.749065
-14.4266 59.5233 400.297 -0.663766 -0.159827 0.730664
-14.5555 59.5238 400.173 -0.67429 -0.193122 0.712767
-14.6826 59.5247 400.046 -0.632923 -0.195944 0.749009
-14.8294 59.5178 399.94 -0.612312 -0.165594 0.77308
-14.9599 59.5138 399.818 -0.640049 -0.127408 0.757697
-15.1011 59.5067 399.707 -0.653649 -0.140366 0.743667
-15.2296 59.5062 399.582 -0.648118 -0.142589 0.748072
-15.3686 59.5016 399.468 -0.641119 -0.139006 0.754747
-15.4971 59.501 399.344 -0.631556 -0.128399 0.764625
-15.6389 59.49 399.234 -0.632125 -0.0832904 0.770377
-15.7827 59.4852 399.124 -0.670555 -0.0889408 0.736509
-15.9109 59.4859 398.999 -0.716529 -0.106074 0.689445
-16.0276 59.4916 398.862 -0.727981 -0.107907 0.677052
-16.1483 59.4955 398.73 -0.718679 -0.0902074 0.689466
-16.274 59.5035 398.6 -0.7116 -0.0911852 0.696642
-16.4002 59.5051 398.473 -0.713323 -0.130658 0.688548
-16.5257 59.5079 398.346 -0.715663 -0.153812 0.681298
-16.65 59.5143 398.215 -0.720969 -0.146634 0.677276
-16.7697 59.5189 398.081 -0.710784 -0.113864 0.694133
-16.8956 59.5206 397.954 -0.697286 -0.0766948 0.712678
-17.0219 59.5229 397.827 -0.742116 -0.0510032 0.668328
-17.1393 59.5325 397.689 -0.752601 -0.0325723 0.657671
-17.2599 59.5361 397.556 -0.758283 -0.0228789 0.651524
-17.3721 59.5456 397.416 -0.749957 -0.0545121 0.659236
-17.5002 59.55 397.288 -0.751968 -0.0855013 0.653631
-17.6195 59.557 397.155 -0.757267 -0.119295 0.642118
-17.7438 59.5626 397.021 -0.783423 -0.115252 0.610709
-17.8286 59.5847 396.856 -0.818618 -0.053931 0.5718
-17.9581 59.5903 396.725 -0.812931 -0.0527112 0.57997
-18.0418 59.614 396.559 -0.844631 -0.0510774 0.532906
-18.1554 59.6294 396.414 -0.82651 -0.0946286 0.554911
-18.2616 59.6381 396.267 -0.824909 -0.126235 0.55099
-18.3538 59.6679 396.1 -0.855107 -0.0883994 0.510859
-18.4498 59.6897 395.94 -0.867366 -0.0766147 0.491738
-18.546 59.7079 395.781 -0.902339 -0.104246 0.418232
-18.6246 59.7443 395.6 -0.889176 -0.15178 0.431658
-18.7226 59.7673 395.44 -0.874658 -0.157193 0.458546
-18.8095 59.791 395.271 -0.887884 -0.116094 0.445179
-18.9024 59.8193 395.105 -0.928007 -0.119633 0.352834
-18.9608 59.8697 394.903 -0.944597 -0.152373 0.290721
-19.0228 59.9064 394.706 -0.926827 -0.111127 0.358668
-19.1032 59.9385 394.528 -0.918094 -0.0911959 0.38573
-19.1911 59.9657 394.358 -0.954109 -0.0891636 0.285877
-19.236 60.014 394.141 -0.982275 -0.123934 0.140631
-19.269 60.0783 393.911 -0.97495 -0.167666 0.146156
-19.3242 60.1315 393.703 -0.977775 -0.166033 0.128017
-19.3436 60.1959 393.459 -0.989849 -0.134755 0.0451712
-19.3673 60.2688 393.216 -0.98655 -0.15023 0.0644189
-19.41 60.3246 392.994 -0.978481 -0.205666 0.0166195
-19.3949 60.4098 392.712 -0.980897 -0.193797 -0.01686
-19.4323 60.4824 392.483 -0.980785 -0.194014 -0.0204841
-19.4328 60.5755 392.214 -0.983026 -0.155942 -0.0966554
-19.3931 60.6739 391.903 -0.984261 -0.128812 -0.120988
-19.3767 60.7734 391.614 -0.981363 -0.134531 -0.137218
-19.3415 60.8787 391.306 -0.980009 -0.100902 -0.171465
-19.2862 60.9991 390.975 -0.963837 -0.0764907 -0.255279
-19.1784 61.1582 390.583 -0.946578 -0.107757 -0.303939
-19.075 61.3067 390.199 -0.937585 -0.118079 -0.327096
-1.33946 61.8516 406.055 -0.724894 0.253064 0.640693
-1.46704 61.8533 405.925 -0.760936 0.220307 0.61028
-1.5777 61.8651 405.779 -0.757286 0.176637 0.628742
-1.68719 61.8776 405.632 -0.743042 0.162138 0.649307
-1.8151 61.8791 405.503 -0.722342 0.125347 0.680081
-1.9455 61.8791 405.376 -0.670908 0.0252799 0.741109
-2.08585 61.873 405.26 -0.644086 -0.00462382 0.764939
-2.22508 61.8677 405.142 -0.681221 -0.0203594 0.731794
-2.35301 61.8692 405.012 -0.685993 -0.0220655 0.727273
-2.49358 61.8641 404.896 -0.616111 -0.0214009 0.787369
-2.63803 61.8523 404.783 -0.517165 -0.0101409 0.855826
-2.8204 61.8295 404.708 -0.48391 -0.0222874 0.874834
-2.97464 61.8086 404.604 -0.4333 -0.0508826 0.899812
-3.15488 61.7784 404.527 -0.330746 -0.0577963 0.941948
-3.35256 61.7376 404.467 -0.264228 -0.0620131 0.962465
-3.55237 61.6954 404.409 -0.221768 -0.0277842 0.974703
-3.76923 61.6429 404.368 -0.190685 0.0177243 0.981491
-3.99426 61.5854 404.336 -0.0982829 -0.0155733 0.995037
-4.24134 61.5144 404.325 -0.0492354 -0.0137524 0.998692
-4.47602 61.4509 404.303 -0.052557 0.0443956 0.997631
-4.71481 61.3848 404.285 -0.0339863 0.0389632 0.998663
-4.97333 61.3066 404.286 0.00763699 0.00374977 0.999964
-5.24114 61.2228 404.297 -0.0320474 0.0238095 0.999203
-5.48518 61.1533 404.285 -0.073673 0.0635725 0.995254
-5.71685 61.0913 404.261 -0.0357418 0.0766564 0.996417
-5.99836 60.9989 404.286 -0.0639849 0.0981299 0.993114
-6.2288 60.9375 404.261 -0.121314 0.123748 0.98487
-6.44201 60.8867 404.219 -0.182113 0.113507 0.976704
-6.65875 60.8336 404.181 -0.0998465 0.0556616 0.993445
-6.9182 60.7543 404.185 -0.106521 0.0805683 0.991041
-7.11704 60.7121 404.129 -0.168254 0.109387 0.979656
-7.36332 60.6408 404.121 -0.159701 0.084597 0.983534
-7.58517 60.5844 404.088 -0.212208 0.0515335 0.975865
-7.78885 60.539 404.038 -0.12999 0.0253419 0.991191
-8.01864 60.4776 404.013 -0.1935 0.0880583 0.97714
-8.20926 60.4402 403.95 -0.263517 0.105353 0.958884
-8.42836 60.3853 403.915 -0.244241 0.0769828 0.966654
-8.62479 60.3443 403.858 -0.336961 0.0916188 0.93705
-8.8322 60.2965 403.812 -0.266141 0.00492968 0.963922
-9.03859 60.2492 403.765 -0.22945 -0.0353697 0.972678
-9.212 60.2222 403.685 -0.305743 0.0515875 0.950716
-9.40433 60.1836 403.624 -0.311542 0.0914465 0.945822
-9.61891 60.1312 403.585 -0.288163 0.0722156 0.954854
-9.81649 60.0892 403.53 -0.337801 0.0708835 0.938545
-9.9949 60.059 403.455 -0.397739 0.0472884 0.916279
-10.1574 60.0387 403.364 -0.429452 0.0379542 0.902292
-10.3333 60.0102 403.287 -0.395765 0.0072194 0.918323
-10.5246 59.9718 403.226 -0.395043 -0.0185196 0.918476
-10.6888 59.9503 403.137 -0.45563 0.00736404 0.890139
-10.851 59.93 403.047 -0.426027 0.015434 0.904579
-11.0334 59.8972 402.977 -0.503749 0.0185583 0.863651
-11.1745 59.89 402.864 -0.526392 -0.0313395 0.849664
-11.3321 59.8725 402.769 -0.501869 0.0024912 0.86494
-11.5054 59.8439 402.69 -0.579529 0.0256518 0.814548
-11.639 59.8419 402.57 -0.541398 -0.0275711 0.840314
-11.8071 59.8232 402.485 -0.52509 -0.0224192 0.850751
-11.9571 59.8071 402.383 -0.528218 -0.0139639 0.848994
-12.1161 59.7927 402.288 -0.516661 -0.0335861 0.855531
-12.2662 59.7748 402.187 -0.569954 -0.044493 0.820471
-12.4234 59.7565 402.091 -0.582411 -0.0780587 0.809138
-12.5604 59.751 401.975 -0.594333 -0.11306 0.796232
-12.7061 59.7426 401.868 -0.674102 -0.101349 0.731652
-12.8301 59.7448 401.739 -0.713446 -0.115671 0.691097
-12.9566 59.7457 401.611 -0.661027 -0.149132 0.735393
-13.0995 59.7394 401.502 -0.653947 -0.141775 0.743137
-13.231 59.7381 401.38 -0.645868 -0.175739 0.742947
-13.3667 59.736 401.263 -0.62357 -0.197277 0.756467
-13.5077 59.7269 401.149 -0.642766 -0.17699 0.745336
-13.6409 59.7292 401.031 -0.656964 -0.164658 0.735722
-13.7749 59.7227 400.911 -0.662109 -0.181415 0.727118
-13.9075 59.7245 400.79 -0.644261 -0.205873 0.736576
-14.0423 59.7203 400.672 -0.644907 -0.182233 0.742217
-14.1715 59.7176 400.548 -0.661859 -0.16611 0.730992
-14.2996 59.7176 400.423 -0.630305 -0.160654 0.759543
-14.4435 59.7089 400.314 -0.641215 -0.127395 0.756712
-14.5777 59.7066 400.196 -0.681023 -0.105401 0.724637
-14.7098 59.7053 400.074 -0.666838 -0.106386 0.73757
-14.8358 59.7067 399.947 -0.65286 -0.0737266 0.753882
-14.9734 59.6978 399.833 -0.634813 -0.0718058 0.769322
-15.1166 59.6932 399.722 -0.654592 -0.106926 0.748383
-15.2422 59.6946 399.596 -0.653338 -0.119103 0.747639
-15.3889 59.6853 399.487 -0.651791 -0.113098 0.749918
-15.5155 59.6876 399.362 -0.670066 -0.0960659 0.736059
-15.6461 59.6858 399.239 -0.628089 -0.0892378 0.773007
-15.7859 59.6801 399.126 -0.659712 -0.0559515 0.749433
-15.912 59.6816 398.999 -0.717405 -0.0444545 0.695236
-16.041 59.684 398.874 -0.740731 -0.0869597 0.66615
-16.1559 59.692 398.736 -0.718 -0.0915973 0.68999
-16.2937 59.6871 398.618 -0.683191 -0.0774652 0.72612
-16.4273 59.6855 398.501 -0.700175 -0.0798147 0.709496
-16.5507 59.688 398.371 -0.724787 -0.108431 0.680387
-16.6706 59.6933 398.237 -0.746354 -0.113791 0.65575
-16.7851 59.7058 398.097 -0.739352 -0.0907914 0.667169
-16.9079 59.7085 397.966 -0.716398 -0.0899428 0.69187
-17.0313 59.7122 397.837 -0.754964 -0.0685582 0.652173
-17.1372 59.7287 397.686 -0.759439 -0.0507298 0.648597
-17.2638 59.7301 397.559 -0.735685 -0.0623214 0.674451
-17.3891 59.7325 397.432 -0.726043 -0.0982702 0.680591
-17.5165 59.7343 397.304 -0.726401 -0.134802 0.673921
-17.633 59.7416 397.168 -0.761087 -0.0927793 0.64198
-17.7419 59.7618 397.019 -0.821624 -0.0396601 0.568648
