25.9719 53.2273 393.824 0.996122 -0.0856901 -0.0199535
25.9684 53.141 394.066 0.993556 -0.112137 -0.0164926
25.9551 53.0623 394.301 0.99508 -0.0987044 0.00859926
25.9382 52.9832 394.531 0.993469 -0.0762436 0.0848928
25.9139 52.9086 394.754 0.989069 -0.109061 0.0992361
25.8805 52.8351 394.965 0.991025 -0.0984874 0.0903887
25.8542 52.7591 395.185 0.984021 -0.0770788 0.160502
25.8084 52.6911 395.385 0.98563 -0.111798 0.126629
25.789 52.6125 395.611 0.982166 -0.146127 0.118308
25.7419 52.5467 395.81 0.974368 -0.184924 0.128101
25.7132 52.4726 396.026 0.974379 -0.195556 0.111097
25.6592 52.4102 396.217 0.953904 -0.17649 0.242732
25.6026 52.3489 396.407 0.955837 -0.204825 0.210764
25.5463 52.2877 396.596 0.958692 -0.234283 0.161311
25.4969 52.2233 396.791 0.946572 -0.227044 0.229026
25.4236 52.1698 396.964 0.950015 -0.24629 0.191867
25.3959 52.0957 397.18 0.938204 -0.270511 0.215866
25.3146 52.046 397.345 0.900242 -0.312414 0.303252
25.2384 51.9943 397.513 0.91756 -0.305272 0.254741
25.1841 51.9324 397.704 0.906936 -0.289733 0.305812
25.0889 51.8893 397.854 0.871665 -0.294835 0.3915
25.0065 51.8403 398.017 0.891261 -0.312092 0.329019
24.9375 51.7884 398.193 0.858661 -0.348502 0.37583
24.8303 51.7483 398.332 0.873839 -0.349026 0.338506
24.7732 51.6866 398.519 0.883843 -0.362096 0.296157
24.677 51.6451 398.668 0.795415 -0.385687 0.467505
24.569 51.6049 398.806 0.761562 -0.423385 0.490682
24.4682 51.5676 398.95 0.790056 -0.456673 0.408975
24.3728 51.5257 399.1 0.81495 -0.436947 0.380701
24.2688 51.4861 399.242 0.764596 -0.432602 0.477755
24.1441 51.4567 399.365 0.693044 -0.44586 0.566479
24.0371 51.4192 399.501 0.643958 -0.467029 0.605972
23.9011 51.3945 399.613 0.645303 -0.4801 0.594212
23.7772 51.3653 399.735 0.68941 -0.458766 0.560579
23.6522 51.3363 399.857 0.689916 -0.454687 0.563272
23.5279 51.3065 399.979 0.69115 -0.452512 0.56351
23.4033 51.2772 400.101 0.656853 -0.444563 0.609022
23.2859 51.2445 400.228 0.632616 -0.471465 0.614425
23.1485 51.2204 400.339 0.635524 -0.487836 0.598435
23.0245 51.1914 400.46 0.603376 -0.474935 0.640605
22.876 51.1727 400.56 0.52635 -0.476828 0.703982
22.7191 51.1579 400.651 0.443028 -0.507107 0.739303
22.561 51.1436 400.741 0.444721 -0.552842 0.704691
22.4019 51.1354 400.831 0.499237 -0.541777 0.676196
22.2395 51.1174 400.916 0.506922 -0.499696 0.702378
22.105 51.0925 401.029 0.473363 -0.535389 0.69949
21.9605 51.0721 401.132 0.437595 -0.587801 0.680441
21.7871 51.0646 401.208 0.441074 -0.601283 0.666267
21.6246 51.0522 401.294 0.435762 -0.581835 0.686717
21.4576 51.0337 401.375 0.52123 -0.53905 0.661623
21.3284 51.0214 401.495 0.460258 -0.513821 0.723982
21.1665 51.0019 401.581 0.37213 -0.564323 0.736925
20.9964 50.9928 401.66 0.379384 -0.593863 0.709503
20.8159 50.982 401.729 0.282032 -0.57809 0.765683
20.6289 50.9869 401.794 0.267632 -0.590607 0.761286
20.4353 50.9902 401.852 0.280189 -0.575869 0.768029
20.2728 50.9758 401.938 0.299948 -0.5951 0.745578
20.0801 50.9806 401.997 0.33279 -0.593442 0.732855
19.8905 50.9727 402.058 0.276992 -0.540255 0.794607
19.7094 50.9754 402.129 0.233986 -0.571098 0.786827
19.5234 50.9697 402.194 0.254529 -0.621175 0.741186
19.3322 50.9698 402.254 0.232719 -0.615302 0.753157
19.152 50.9615 402.325 0.151599 -0.614821 0.773959
18.9341 50.9766 402.361 0.0916409 -0.653125 0.751685
18.7182 50.9879 402.399 0.114315 -0.69721 0.707694
18.4884 51.0022 402.424 0.0911647 -0.634377 0.767629
18.2609 51.0209 402.452 0.122847 -0.621155 0.774
18.0798 51.0163 402.523 0.156054 -0.6342 0.757257
17.8594 51.0291 402.557 0.0708736 -0.600092 0.796785
17.6185 51.0508 402.573 0.0733863 -0.614111 0.7858
17.4232 51.0524 402.631 0.0880551 -0.616216 0.78264
17.1862 51.0723 402.651 -0.056156 -0.571209 0.818882
16.901 51.1133 402.627 -0.0326234 -0.593291 0.804327
16.6904 51.1215 402.671 0.0370127 -0.620929 0.782993
16.4223 51.1549 402.663 0.000258965 -0.590349 0.807148
16.1997 51.1682 402.697 -0.00589108 -0.602088 0.798408
15.9477 51.1944 402.704 0.00938023 -0.64296 0.765842
15.7295 51.2056 402.742 0.130566 -0.69397 0.708066
15.528 51.2096 402.796 0.141762 -0.66267 0.735372
15.3175 51.2141 402.84 0.100857 -0.637653 0.763692
15.0922 51.2339 402.874 0.205875 -0.654971 0.727069
14.9094 51.2302 402.945 0.302247 -0.624473 0.720194
14.7333 51.2198 403.022 0.22922 -0.609249 0.759127
14.5273 51.2254 403.072 0.255031 -0.665934 0.701064
14.3526 51.224 403.153 0.332004 -0.662714 0.671256
14.1815 51.2078 403.233 0.329831 -0.626214 0.706447
13.9925 51.2058 403.299 0.415003 -0.676045 0.60888
13.847 51.185 403.405 0.496261 -0.671013 0.550878
13.7077 51.1615 403.516 0.496643 -0.668385 0.553721
13.5587 51.1421 403.618 0.555198 -0.666895 0.496997
13.432 51.1131 403.741 0.584869 -0.636419 0.502891
13.2975 51.0875 403.857 0.592597 -0.6492 0.476831
13.1804 51.0541 403.988 0.602173 -0.639208 0.478331
13.046 51.0285 404.104 0.591256 -0.628271 0.505661
12.917 51.0005 404.225 0.613034 -0.609266 0.502976
12.7852 50.9737 404.343 0.637489 -0.559748 0.529424
12.6594 50.9441 404.467 0.624697 -0.56117 0.542994
12.5198 50.9209 404.577 0.648467 -0.549491 0.526831
12.4141 50.8828 404.72 0.633316 -0.544275 0.550159
12.2806 50.8569 404.836 0.594881 -0.596476 0.538825
12.1547 50.8274 404.959 0.607083 -0.618851 0.498472
12.0187 50.8025 405.074 0.51801 -0.629639 0.578982
11.8449 50.794 405.154 0.519135 -0.588885 0.619447
11.7164 50.7655 405.275 0.571151 -0.564156 0.59625
11.5799 50.7409 405.39 0.493205 -0.586999 0.642013
11.4306 50.7216 405.492 0.4743 -0.64085 0.603615
11.281 50.7025 405.595 0.475226 -0.660234 0.581594
11.1119 50.6917 405.68 0.398451 -0.598917 0.694648
10.9299 50.6889 405.755 0.364493 -0.585121 0.724416
10.776 50.6692 405.853 0.385527 -0.626135 0.677734
10.5894 50.664 405.922 0.392224 -0.63321 0.667237
10.4247 50.6547 406.013 0.410294 -0.585817 0.698912
10.2621 50.6369 406.102 0.401484 -0.560478 0.724345
10.1 50.6299 406.197 0.306052 -0.594179 0.74383
9.88862 50.6316 406.243 0.25626 -0.599591 0.75817
9.70383 50.6295 406.316 0.270229 -0.591263 0.759858
9.51519 50.624 406.383 0.224835 -0.598632 0.768823
9.30969 50.6281 406.437 0.191669 -0.596445 0.779433
9.11382 50.6342 406.502 0.219595 -0.621874 0.751699
8.90187 50.639 406.55 0.24055 -0.618254 0.748263
8.70382 50.6395 406.61 0.231488 -0.585477 0.776936
8.51985 50.6304 406.682 0.213522 -0.601955 0.769453
8.30984 50.6435 406.736 0.175121 -0.632591 0.754427
8.10207 50.6463 406.787 0.134929 -0.63791 0.758198
7.88364 50.656 406.831 0.110276 -0.653073 0.749223
7.65631 50.6695 406.867 0.0970997 -0.644346 0.758544
7.4435 50.6768 406.916 0.0951797 -0.616576 0.781521
7.21116 50.6923 406.948 0.0394039 -0.630785 0.774957
6.96564 50.7134 406.968 0.0219244 -0.6473 0.76192
6.72681 50.7315 406.995 0.0380078 -0.645413 0.762887
6.47172 50.7565 407.008 0.0955299 -0.641787 0.76091
6.28289 50.7534 407.078 0.00488857 -0.600222 0.799818
6.00157 50.7893 407.069 -0.0873902 -0.597299 0.797243
5.70139 50.833 407.043 -0.0545215 -0.623138 0.780209
5.45444 50.8543 407.064 -0.034177 -0.641374 0.766467
5.19926 50.8789 407.078 -0.0723943 -0.606288 0.791943
4.90536 50.9198 407.058 -0.130036 -0.552365 0.823398
4.60933 50.9615 407.037 -0.126414 -0.560734 0.818289
4.31443 51.0026 407.017 -0.164199 -0.548053 0.820169
4.02111 51.0429 406.999 -0.216502 -0.574266 0.789523
3.66721 51.1086 406.929 -0.206569 -0.638294 0.741559
3.3451 51.1608 406.887 -0.219562 -0.633301 0.742107
3.04409 51.2041 406.863 -0.25992 -0.660831 0.704091
2.62237 51.2979 406.736 -0.308918 -0.577334 0.755814
-3.58331 53.4737 402.604 0.284527 -0.200801 0.937402
-3.80582 53.483 402.654 0.266136 -0.221799 0.938071
-4.00936 53.4835 402.72 0.272289 -0.209954 0.93903
-4.22598 53.4877 402.773 0.172532 -0.217444 0.960703
-4.45918 53.5047 402.815 0.287972 -0.269603 0.918905
-4.62228 53.4898 402.916 0.278014 -0.280476 0.918717
-4.87159 53.5058 402.942 0.235367 -0.282117 0.93006
-5.0583 53.4983 403.023 0.227548 -0.288227 0.930133
-5.31037 53.5187 403.049 0.169104 -0.250332 0.953277
-5.52602 53.5257 403.106 0.201364 -0.216182 0.955363
-5.7588 53.5334 403.147 0.168361 -0.239233 0.956254
-5.98623 53.5462 403.194 0.0795984 -0.263912 0.961257
-6.26243 53.5753 403.199 0.0658688 -0.250952 0.965756
-6.49872 53.5937 403.24 0.0694885 -0.262843 0.962333
-6.76259 53.6149 403.256 -0.0168997 -0.304701 0.952298
-7.05476 53.6514 403.248 -0.0375497 -0.312459 0.949189
-7.32426 53.683 403.262 -0.0637529 -0.295079 0.953344
-7.63596 53.7229 403.238 -0.144687 -0.310539 0.939484
-7.98331 53.783 403.185 -0.176412 -0.304448 0.93605
-8.30424 53.8299 403.155 -0.247082 -0.280892 0.927389
-8.7334 53.9271 403.035 -0.289472 -0.304586 0.907432
-9.13765 54.0045 402.936 -0.303093 -0.274734 0.9125
25.9595 53.7773 392.867 0.998946 0.00623557 -0.0454824
25.9726 53.6693 393.126 0.998969 0.00510042 -0.0451051
25.983 53.5785 393.383 0.999237 -0.0369489 -0.0126324
25.981 53.4873 393.628 0.996055 -0.0837959 -0.0291934
25.9909 53.4012 393.886 0.995809 -0.0838661 -0.0364857
25.9881 53.3146 394.129 0.994774 -0.102074 0.00252689
25.971 53.2309 394.358 0.989126 -0.145047 0.0243126
25.9489 53.153 394.582 0.988371 -0.147295 0.0377788
25.9308 53.0717 394.809 0.987067 -0.12446 0.101035
25.8822 53.0079 395.008 0.986066 -0.118699 0.116555
25.8558 52.9323 395.228 0.987405 -0.11032 0.113407
25.8238 52.8595 395.441 0.990087 -0.0951451 0.103324
25.8023 52.7818 395.665 0.989302 -0.0982823 0.107806
25.7675 52.7105 395.875 0.982267 -0.131021 0.134108
25.7272 52.6408 396.081 0.973819 -0.134173 0.183506
25.6639 52.5831 396.264 0.964926 -0.136207 0.224421
25.6239 52.5144 396.468 0.969712 -0.153335 0.190123
25.5818 52.4465 396.671 0.959672 -0.196256 0.201281
25.5171 52.3891 396.852 0.954166 -0.21823 0.204797
25.4846 52.317 397.064 0.950621 -0.255764 0.175796
25.408 52.2641 397.233 0.948109 -0.224992 0.224651
25.3596 52.2007 397.428 0.919424 -0.211102 0.331807
25.2694 52.155 397.584 0.917477 -0.25886 0.302038
25.2016 52.0993 397.762 0.903336 -0.27019 0.333138
25.1098 52.0547 397.915 0.875534 -0.347446 0.33574
25.0495 51.9926 398.1 0.881794 -0.377083 0.283281
24.9566 51.9514 398.252 0.865953 -0.336333 0.370142
24.8834 51.9032 398.424 0.880434 -0.360624 0.307874
24.8034 51.8478 398.589 0.87299 -0.363738 0.324935
24.7092 51.8078 398.74 0.818018 -0.353284 0.453912
24.6108 51.7636 398.887 0.795637 -0.412237 0.443871
24.5123 51.7222 399.034 0.794958 -0.423822 0.434069
24.4058 51.6845 399.173 0.803293 -0.421471 0.420812
24.3174 51.6381 399.329 0.75919 -0.42855 0.489873
24.1983 51.6071 399.456 0.702852 -0.438155 0.560374
24.0689 51.5796 399.574 0.657982 -0.45763 0.598026
23.9309 51.5561 399.682 0.642815 -0.451509 0.618812
23.807 51.5269 399.804 0.690032 -0.442836 0.572496
23.6909 51.4931 399.935 0.687255 -0.459345 0.562745
23.5675 51.4632 400.057 0.665981 -0.49788 0.555504
23.4431 51.4339 400.18 0.649807 -0.53437 0.540556
23.3099 51.4079 400.293 0.637247 -0.508672 0.578937
23.1825 51.3804 400.412 0.622518 -0.475044 0.621937
23.0391 51.3602 400.516 0.599164 -0.46378 0.652618
22.9054 51.3343 400.629 0.552381 -0.466541 0.690807
22.7639 51.3123 400.735 0.485942 -0.521936 0.70103
22.6061 51.2979 400.825 0.43483 -0.557102 0.707502
22.4421 51.2863 400.909 0.450388 -0.569509 0.687613
22.2985 51.2655 401.013 0.517881 -0.577005 0.631557
22.1529 51.2456 401.115 0.514425 -0.574607 0.636548
21.9907 51.2332 401.202 0.459825 -0.561103 0.688276
21.8459 51.2129 401.304 0.438842 -0.532313 0.72392
21.6835 51.2005 401.391 0.400621 -0.567288 0.719505
21.5076 51.1884 401.464 0.478383 -0.590166 0.650272
21.3764 51.1764 401.581 0.507258 -0.541158 0.670699
21.2056 51.1592 401.659 0.414785 -0.523385 0.744326
21.0436 51.1472 401.746 0.382028 -0.539459 0.750359
20.8733 51.132 401.824 0.304259 -0.543793 0.782123
20.684 51.1401 401.887 0.255008 -0.576952 0.775949
20.5021 51.1333 401.955 0.290142 -0.618001 0.73068
20.3123 51.1331 402.016 0.297513 -0.596567 0.745382
20.1321 51.1285 402.087 0.287484 -0.574267 0.766531
19.9568 51.1216 402.162 0.30552 -0.5796 0.755461
19.7812 51.1212 402.238 0.279744 -0.599825 0.749636
19.5863 51.1168 402.294 0.249306 -0.63036 0.735182
19.4001 51.1147 402.359 0.240634 -0.642762 0.727291
19.198 51.1197 402.409 0.212877 -0.605356 0.766959
19.0137 51.1167 402.477 0.152002 -0.569776 0.80762
18.7989 51.1273 402.516 0.073808 -0.590261 0.803831
18.5641 51.1466 402.536 0.0732134 -0.617647 0.78304
18.3649 51.1502 402.59 0.11813 -0.671754 0.731295
18.1278 51.1705 402.609 0.129414 -0.686086 0.715917
17.931 51.1728 402.665 0.0816056 -0.61554 0.783869
17.7028 51.1891 402.693 0.0722792 -0.610677 0.788574
17.4716 51.2065 402.718 0.0879984 -0.608504 0.788656
17.2517 51.219 402.753 -0.0363068 -0.5055 0.862062
16.9819 51.2534 402.743 -0.0186034 -0.519856 0.854052
16.7543 51.2691 402.772 0.0249763 -0.576273 0.816876
16.5155 51.2897 402.79 0.0100201 -0.612289 0.79057
16.2902 51.3043 402.822 0.0182364 -0.671815 0.740495
16.0511 51.3249 402.84 0.0207122 -0.669187 0.742805
15.8225 51.3408 402.869 0.100367 -0.658908 0.745498
15.601 51.3536 402.904 0.129661 -0.640152 0.757227
15.3835 51.3645 402.944 0.102154 -0.599852 0.793563
15.1601 51.3812 402.978 0.160042 -0.644431 0.747727
14.9681 51.3777 403.04 0.283992 -0.666493 0.689301
14.7849 51.3733 403.111 0.287143 -0.612696 0.73631
14.6093 51.3658 403.189 0.25207 -0.616653 0.745788
14.4033 51.3677 403.238 0.298185 -0.636626 0.711191
14.2288 51.3634 403.318 0.387707 -0.619275 0.682775
14.0915 51.339 403.431 0.429685 -0.633154 0.643807
13.923 51.3282 403.516 0.485548 -0.68791 0.539466
13.792 51.301 403.635 0.502858 -0.669658 0.546527
13.6342 51.2858 403.729 0.545898 -0.624413 0.558662
13.5082 51.2563 403.852 0.609435 -0.615215 0.5001
13.3823 51.2268 403.976 0.590816 -0.635329 0.497286
13.2392 51.2052 404.083 0.588271 -0.640361 0.493838
13.1131 51.1758 404.207 0.585901 -0.605599 0.538489
12.9675 51.1551 404.313 0.590105 -0.553998 0.58725
12.8276 51.1317 404.423 0.649141 -0.522318 0.552992
12.7158 51.0961 404.56 0.62861 -0.531826 0.56746
12.5708 51.0753 404.665 0.631196 -0.575252 0.520265
12.4527 51.0425 404.796 0.658361 -0.582972 0.476135
12.327 51.0131 404.92 0.6403 -0.541453 0.544834
12.2013 50.9836 405.043 0.643185 -0.514579 0.567029
12.0733 50.9553 405.165 0.512669 -0.505422 0.69406
11.9011 50.946 405.247 0.51343 -0.543897 0.663752
11.7727 50.9177 405.368 0.586726 -0.561761 0.583247
11.6191 50.9004 405.467 0.575462 -0.501489 0.646028
11.4905 50.8723 405.588 0.540734 -0.500822 0.675859
11.3258 50.8597 405.677 0.444387 -0.539768 0.714962
11.1585 50.8482 405.764 0.39591 -0.557191 0.729927
10.9969 50.8337 405.856 0.41011 -0.579516 0.704252
10.8272 50.8221 405.94 0.410534 -0.565845 0.715039
10.6665 50.8071 406.033 0.35742 -0.571654 0.738554
10.4754 50.8099 406.1 0.376363 -0.613127 0.694569
10.3107 50.7953 406.189 0.432968 -0.598364 0.674165
10.1521 50.7826 406.285 0.317466 -0.600658 0.733774
9.9527 50.775 406.34 0.243319 -0.614218 0.750688
9.7675 50.7787 406.415 0.277709 -0.619732 0.734036
9.57434 50.7766 406.479 0.225784 -0.608365 0.760864
9.36701 50.7829 406.531 0.211931 -0.60234 0.769592
9.17124 50.7833 406.594 0.214684 -0.608709 0.763796
8.97125 50.7819 406.651 0.206195 -0.621605 0.755706
8.7728 50.7863 406.713 0.23396 -0.653982 0.719423
8.57265 50.7892 406.773 0.245696 -0.638422 0.729418
8.3922 50.7829 406.849 0.199055 -0.592781 0.780377
8.17106 50.7894 406.888 0.174031 -0.563287 0.807725
7.9734 50.795 406.952 0.123576 -0.56419 0.816344
7.73109 50.815 406.975 0.0753778 -0.61197 0.787281
7.49281 50.8331 407.002 0.123407 -0.634285 0.763186
7.30095 50.8316 407.069 0.0658657 -0.611759 0.788297
7.03911 50.8596 407.075 0.0203357 -0.611365 0.791088
6.80936 50.874 407.11 0.0212654 -0.624676 0.780594
6.55931 50.8969 407.127 0.0699464 -0.692984 0.717552
6.33872 50.9073 407.17 0.0291404 -0.644708 0.763874
6.06515 50.9401 407.167 -0.0721345 -0.552768 0.830207
5.82878 50.957 407.197 -0.0446843 -0.617313 0.785448
5.56198 50.9867 407.2 -0.052092 -0.642346 0.764642
5.27455 51.0251 407.186 -0.0974238 -0.61165 0.785107
4.99185 51.0614 407.176 -0.129427 -0.60022 0.789293
4.69772 51.1024 407.157 -0.130859 -0.646268 0.751807
4.41855 51.137 407.15 -0.132367 -0.666763 0.73342
4.12067 51.1794 407.128 -0.173798 -0.592465 0.786626
3.82394 51.2212 407.107 -0.201392 -0.587688 0.783623
3.50374 51.2728 407.067 -0.173695 -0.667318 0.724236
3.21041 51.313 407.049 -0.290041 -0.573881 0.765857
2.73115 51.4311 406.873 -0.34044 -0.529688 0.776872
-3.58789 53.6589 402.645 0.30535 -0.126598 0.943787
-3.80458 53.6649 402.699 0.259701 -0.176209 0.949477
-4.00965 53.6685 402.765 0.273161 -0.211723 0.93838
-4.2194 53.6744 402.826 0.218691 -0.19653 0.955798
-4.43756 53.6719 402.878 0.297666 -0.245828 0.922477
-4.63479 53.6688 402.948 0.282926 -0.245734 0.927129
-4.85141 53.6793 403.004 0.244942 -0.244745 0.938138
-5.05666 53.6787 403.068 0.197719 -0.245286 0.949074
-5.30879 53.7023 403.094 0.144384 -0.236109 0.96094
-5.53436 53.7081 403.141 0.219106 -0.231707 0.947789
-5.74364 53.7152 403.206 0.19074 -0.216296 0.957515
-5.98087 53.7271 403.243 0.0720283 -0.246401 0.966488
-6.25415 53.7575 403.251 0.0721712 -0.279686 0.957375
-6.48179 53.7661 403.298 0.103903 -0.29668 0.949308
-6.73643 53.7872 403.323 -0.00859065 -0.2909 0.956715
-7.03021 53.8229 403.315 -0.046949 -0.304637 0.951311
-7.32521 53.8591 403.305 -0.042708 -0.275894 0.960239
-7.60016 53.8911 403.314 -0.141161 -0.273838 0.95136
-7.96419 53.9576 403.246 -0.185243 -0.317087 0.930129
-8.30228 54.0113 403.201 -0.231349 -0.286426 0.929752
-8.69372 54.09 403.113 -0.299759 -0.286428 0.910002
-9.13546 54.194 402.983 -0.302861 -0.31855 0.898221
25.9651 53.9405 392.912 0.99204 -0.0953212 -0.082281
25.9751 53.8471 393.169 0.996555 -0.0281659 -0.0780084
26.0129 53.7404 393.453 0.998595 -0.0289972 -0.044352
26.0006 53.6611 393.69 0.997279 -0.0692381 -0.0253228
26.0058 53.5659 393.939 0.998539 -0.047228 -0.0262765
26.0034 53.4799 394.184 0.996391 -0.0834705 -0.0154192
26.0114 53.3883 394.438 0.989648 -0.140424 0.029618
25.9702 53.3133 394.642 0.983803 -0.166849 0.0655265
25.9435 53.2456 394.863 0.985103 -0.135257 0.106195
25.9065 53.1725 395.073 0.984371 -0.130463 0.11829
25.8791 53.0974 395.291 0.981773 -0.157592 0.106236
25.8273 53.0334 395.486 0.989045 -0.112159 0.0959755
25.8151 52.9513 395.718 0.99017 -0.111642 0.0842562
25.7754 52.8821 395.924 0.980492 -0.13599 0.141924
25.7324 52.8149 396.127 0.97188 -0.13919 0.189937
25.6871 52.7479 396.327 0.965464 -0.183758 0.184698
25.637 52.6835 396.522 0.971176 -0.188606 0.145755
25.5958 52.6152 396.726 0.963231 -0.195345 0.184461
25.5426 52.5525 396.918 0.962929 -0.211547 0.16738
25.4994 52.4852 397.119 0.949033 -0.212189 0.233051
25.4154 52.4379 397.281 0.943294 -0.169707 0.285302
25.365 52.3728 397.476 0.937386 -0.193805 0.289392
25.287 52.3218 397.642 0.918101 -0.256872 0.301841
25.235 52.2587 397.835 0.926435 -0.26095 0.271337
25.1761 52.199 398.021 0.894782 -0.332121 0.298429
25.0827 52.1542 398.173 0.862388 -0.362844 0.353032
24.9861 52.1079 398.322 0.876501 -0.359878 0.319739
24.9296 52.052 398.509 0.870967 -0.38832 0.301038
24.8217 52.0119 398.647 0.84848 -0.3829 0.365335
24.7495 51.9603 398.819 0.836836 -0.392797 0.381335
24.6498 51.9204 398.965 0.804771 -0.405614 0.433383
24.5484 51.8804 399.109 0.804802 -0.388964 0.448332
24.4534 51.8374 399.259 0.80203 -0.399314 0.444181
24.3416 51.8021 399.393 0.764398 -0.381898 0.51947
24.22 51.7707 399.519 0.726319 -0.355511 0.58828
24.1153 51.7335 399.658 0.656326 -0.430119 0.619865
23.9714 51.7123 399.763 0.641175 -0.464716 0.610683
23.8566 51.678 399.892 0.705466 -0.430987 0.562643
23.7321 51.6487 400.015 0.724079 -0.418499 0.548241
23.6279 51.6092 400.156 0.703623 -0.462681 0.539297
23.5048 51.5796 400.28 0.628229 -0.523687 0.575396
23.3675 51.5566 400.388 0.602348 -0.518134 0.607218
23.2275 51.5344 400.496 0.604538 -0.492902 0.625764
23.0969 51.5077 400.612 0.583335 -0.514524 0.628479
22.9529 51.4871 400.715 0.579284 -0.538856 0.611608
22.8219 51.4606 400.831 0.510667 -0.551966 0.659206
22.6592 51.4485 400.916 0.44197 -0.578457 0.685602
22.5111 51.4298 401.016 0.45459 -0.596163 0.661769
22.3456 51.4189 401.099 0.519227 -0.563486 0.642562
22.2147 51.3924 401.215 0.508671 -0.53495 0.674598
22.0554 51.3787 401.304 0.431478 -0.555195 0.711045
21.8778 51.3732 401.376 0.467461 -0.558991 0.684843
21.7421 51.3488 401.487 0.424128 -0.577043 0.697952
21.5683 51.3416 401.563 0.422774 -0.609659 0.670506
21.414 51.3307 401.657 0.480606 -0.55688 0.677424
21.2607 51.3093 401.752 0.427891 -0.534619 0.72876
21.0929 51.2992 401.833 0.384702 -0.563972 0.730712
20.9174 51.2919 401.908 0.345239 -0.542811 0.765615
20.753 51.285 401.993 0.298486 -0.563133 0.770576
20.5611 51.2818 402.052 0.269093 -0.605959 0.7486
20.3794 51.2781 402.121 0.262461 -0.64616 0.716653
20.1893 51.2753 402.181 0.264773 -0.673297 0.690338
20.0013 51.2771 402.245 0.315743 -0.634023 0.705919
19.8337 51.2608 402.326 0.328163 -0.56525 0.756836
19.6581 51.2598 402.402 0.269655 -0.616632 0.739629
19.4713 51.2581 402.467 0.202464 -0.652457 0.73028
19.2626 51.266 402.511 0.176712 -0.65017 0.738953
19.0544 51.2738 402.556 0.181609 -0.620896 0.762565
18.8569 51.2767 402.611 0.108566 -0.548769 0.828894
18.633 51.2913 402.642 0.120005 -0.61218 0.781559
18.4372 51.2934 402.699 0.137224 -0.646272 0.750668
18.2339 51.2988 402.749 0.0753109 -0.644062 0.761257
17.9846 51.3245 402.756 0.0748679 -0.639419 0.765204
17.7708 51.3345 402.797 0.065306 -0.615675 0.785289
17.5435 51.3503 402.826 0.0189052 -0.627878 0.778082
17.2809 51.3817 402.822 -0.0350899 -0.557316 0.829559
17.0298 51.4088 402.829 0.0121037 -0.57763 0.816209
16.8226 51.4147 402.876 0.0550984 -0.636538 0.769275
16.5866 51.4342 402.897 0.0657567 -0.636402 0.768549
16.3862 51.4379 402.952 0.0231664 -0.618174 0.7857
16.1089 51.4754 402.935 -0.000256654 -0.584272 0.811558
15.8841 51.4897 402.967 0.0854321 -0.591871 0.801492
15.6667 51.5008 403.006 0.104139 -0.589484 0.801039
15.4467 51.5167 403.044 0.130417 -0.628651 0.766674
15.2567 51.5117 403.108 0.16009 -0.658527 0.735332
15.0362 51.524 403.144 0.22283 -0.677877 0.700592
14.8565 51.5183 403.218 0.282344 -0.664819 0.69159
14.6616 51.5193 403.279 0.264793 -0.632977 0.727479
14.4853 51.5132 403.356 0.272347 -0.649118 0.710263
14.2998 51.5128 403.426 0.386719 -0.669424 0.634287
14.1376 51.4952 403.515 0.504811 -0.613965 0.606805
14.0112 51.4661 403.638 0.513558 -0.559322 0.650705
13.8383 51.4573 403.719 0.492389 -0.571943 0.656075
13.6897 51.4378 403.821 0.566185 -0.574721 0.590873
13.5639 51.4083 403.945 0.64293 -0.573903 0.507224
13.4423 51.3773 404.072 0.621761 -0.572342 0.534638
13.3164 51.3479 404.195 0.569251 -0.598839 0.563333
13.162 51.3309 404.293 0.535255 -0.607148 0.587259
13.0154 51.3106 404.398 0.56428 -0.572751 0.594596
12.8872 51.2824 404.519 0.638942 -0.564743 0.522321
12.7616 51.2528 404.643 0.658009 -0.56027 0.503112
12.6533 51.2158 404.782 0.635821 -0.59692 0.489304
12.5276 51.1863 404.906 0.590622 -0.644789 0.485194
12.3797 51.1668 405.009 0.579466 -0.637617 0.507607
12.2499 51.1389 405.129 0.592839 -0.594084 0.543696
12.1002 51.12 405.231 0.53794 -0.549473 0.639296
11.9655 51.0945 405.347 0.529845 -0.575741 0.622725
11.8162 51.0754 405.449 0.517232 -0.596231 0.613986
11.6587 51.0597 405.545 0.551855 -0.56777 0.610814
11.5274 51.0327 405.663 0.572258 -0.501639 0.648752
11.3817 51.012 405.769 0.470389 -0.505951 0.723013
11.2208 50.9978 405.862 0.410017 -0.589853 0.695673
11.0457 50.9897 405.942 0.395124 -0.582748 0.710128
10.8755 50.98 406.026 0.424933 -0.538767 0.727435
10.7119 50.968 406.117 0.41528 -0.515273 0.749691
10.5542 50.9529 406.213 0.376478 -0.550895 0.744835
10.3728 50.9453 406.286 0.432421 -0.6225 0.652308
10.2339 50.9214 406.399 0.331509 -0.627254 0.704737
10.0138 50.9249 406.436 0.236461 -0.639843 0.731223
9.84017 50.9262 406.522 0.259957 -0.66246 0.702544
9.63921 50.9258 406.579 0.218128 -0.625111 0.749437
9.44446 50.931 406.644 0.212622 -0.625705 0.750523
9.24208 50.9312 406.7 0.22245 -0.63751 0.73763
9.0465 50.9305 406.762 0.228625 -0.651554 0.723331
8.85702 50.9321 406.832 0.211638 -0.666635 0.714708
8.65192 50.9341 406.886 0.203197 -0.648609 0.733497
8.43053 50.9436 406.926 0.166521 -0.626682 0.761276
8.21357 50.9532 406.971 0.174098 -0.612241 0.771265
8.01343 50.9551 407.03 0.181504 -0.581191 0.793267
7.81968 50.9604 407.098 0.0907179 -0.578526 0.810603
7.58313 50.9745 407.125 0.11302 -0.646781 0.754255
7.3671 50.9822 407.17 0.0746519 -0.635955 0.768107
7.11731 51.0038 407.186 0.0257585 -0.646441 0.762529
6.89651 51.0198 407.231 0.0643342 -0.675325 0.734709
6.67681 51.0246 407.272 0.040045 -0.655382 0.754235
6.41572 51.0522 407.28 -0.0219428 -0.637036 0.770522
6.15176 51.081 407.285 -0.034284 -0.619863 0.78396
5.88925 51.1091 407.292 -0.0174925 -0.611062 0.791389
5.63502 51.1336 407.306 -0.0569862 -0.598314 0.799233
5.37523 51.1604 407.316 -0.0978387 -0.641942 0.760486
5.09015 51.1978 407.304 -0.0970181 -0.677585 0.729017
4.84202 51.2196 407.324 -0.112494 -0.652964 0.748988
4.52727 51.2693 407.287 -0.169617 -0.604613 0.77825
4.1879 51.3293 407.23 -0.166382 -0.596861 0.784904
3.8936 51.3703 407.211 -0.15036 -0.583912 0.797771
3.59906 51.4112 407.192 -0.184684 -0.597881 0.780019
3.24457 51.4772 407.122 -0.292031 -0.504722 0.812388
2.86546 51.5535 407.032 -0.316553 -0.533535 0.784305
2.50575 51.6215 406.958 -0.329028 -0.565177 0.756516
-3.62023 53.8521 402.66 0.343204 0.0843181 0.935469
-3.80326 53.8504 402.746 0.297665 -0.086292 0.950762
-4.02175 53.8513 402.797 0.258168 -0.185357 0.948152
-4.23719 53.8556 402.853 0.264528 -0.213494 0.94045
-4.43601 53.8577 402.924 0.303303 -0.207485 0.930031
-4.63369 53.8557 402.995 0.283294 -0.198198 0.938329
-4.84993 53.8588 403.049 0.246019 -0.194903 0.949467
-5.07062 53.8689 403.102 0.193838 -0.184353 0.963556
-5.2972 53.8746 403.148 0.143484 -0.23155 0.962183
-5.53871 53.895 403.183 0.203017 -0.24794 0.947264
-5.75568 53.898 403.238 0.214748 -0.206745 0.954536
-5.97937 53.9071 403.288 0.101036 -0.2163 0.971085
-6.23546 53.9313 403.312 0.0855571 -0.266982 0.959896
-6.48003 53.9467 403.343 0.10368 -0.284366 0.953093
-6.73485 53.9681 403.367 0.0135435 -0.215214 0.976473
-7.02079 54.0055 403.366 -0.0540206 -0.211401 0.975905
-7.32357 54.045 403.351 -0.0355224 -0.248716 0.967925
-7.59673 54.0742 403.36 -0.106495 -0.252665 0.961675
-7.93151 54.1278 403.319 -0.194803 -0.289409 0.937174
-8.292 54.1942 403.256 -0.225445 -0.287784 0.930782
-8.6688 54.2625 403.18 -0.282749 -0.262246 0.922648
-9.08111 54.3493 403.073 -0.305788 -0.295813 0.90498
25.9697 54.0271 393.205 0.998147 0.0036181 -0.0607346
26.0145 53.9164 393.496 0.998461 0.039851 -0.0385592
26.0016 53.8223 393.728 0.999566 0.0184361 0.0229817
26.0075 53.7424 393.983 0.999517 0.00111561 -0.0310476
26.0309 53.6403 394.251 0.998985 -0.037388 -0.0251112
26.014 53.5626 394.482 0.996867 -0.0644674 0.0458204
26.0013 53.4863 394.716 0.987941 -0.0869157 0.128135
25.9465 53.4177 394.907 0.987241 -0.0998901 0.124002
25.9289 53.3378 395.136 0.990173 -0.0886099 0.108191
25.8897 53.2679 395.343 0.978178 -0.150611 0.14312
25.8455 53.2006 395.544 0.984621 -0.156521 0.0776096
25.8381 53.1162 395.782 0.985221 -0.159488 0.0624723
25.7928 53.0496 395.982 0.975996 -0.166675 0.140181
25.7565 52.9788 396.191 0.978509 -0.13835 0.152904
25.715 52.9103 396.395 0.968953 -0.177982 0.171619
25.6632 52.8468 396.588 0.970404 -0.18826 0.151239
25.6291 52.7751 396.799 0.964652 -0.208257 0.161481
25.5686 52.7157 396.984 0.958979 -0.215754 0.183875
25.5199 52.6509 397.18 0.935299 -0.211177 0.283937
25.4283 52.6059 397.334 0.944452 -0.211852 0.251254
25.4069 52.5288 397.556 0.946494 -0.228831 0.227564
25.3202 52.4815 397.715 0.916902 -0.286278 0.278094
25.2564 52.424 397.896 0.94033 -0.259152 0.220499
25.1923 52.3665 398.077 0.913843 -0.247323 0.32206
25.1109 52.317 398.241 0.882193 -0.278525 0.379683
25.0437 52.2611 398.418 0.893477 -0.336223 0.297745
24.9617 52.2152 398.581 0.870716 -0.352297 0.343132
24.8758 52.1647 398.74 0.851923 -0.373452 0.367098
24.7886 52.1158 398.898 0.835753 -0.389259 0.387292
24.6809 52.0809 399.036 0.801579 -0.376749 0.464254
24.5817 52.0364 399.182 0.813188 -0.378068 0.442482
24.4817 51.9991 399.328 0.791744 -0.354441 0.497507
24.3681 51.9647 399.46 0.736326 -0.390388 0.552649
24.2516 51.9308 399.59 0.743381 -0.458375 0.487112
24.1532 51.8909 399.735 0.659926 -0.512029 0.54984
24.0032 51.8723 399.835 0.604051 -0.540885 0.585291
23.8792 51.8427 399.955 0.669392 -0.535907 0.514508
23.7597 51.8121 400.082 0.733311 -0.484797 0.476683
23.6633 51.7688 400.231 0.743718 -0.435479 0.50719
23.5387 51.7395 400.353 0.644077 -0.425308 0.635828
23.3999 51.7185 400.46 0.594435 -0.459239 0.660111
23.2627 51.6926 400.57 0.61601 -0.51133 0.599227
23.1397 51.663 400.693 0.59548 -0.548407 0.587072
23.0002 51.6377 400.801 0.590749 -0.519203 0.617611
22.8684 51.6143 400.916 0.555555 -0.469012 0.686575
22.7171 51.5969 401.012 0.484919 -0.485133 0.727667
22.5589 51.5828 401.102 0.444951 -0.517953 0.730577
22.3901 51.5734 401.182 0.491443 -0.558052 0.668627
22.2505 51.5509 401.29 0.520497 -0.551783 0.651627
22.0932 51.5363 401.381 0.4493 -0.501651 0.73924
21.9468 51.5168 401.482 0.490007 -0.53912 0.685012
21.796 51.4958 401.579 0.4675 -0.548358 0.693359
21.6333 51.4866 401.665 0.383414 -0.55342 0.739405
21.4524 51.4831 401.734 0.451716 -0.573805 0.683155
21.314 51.4598 401.843 0.454929 -0.549714 0.70061
21.1403 51.4492 401.919 0.367211 -0.550485 0.749748
20.9707 51.4435 401.999 0.361707 -0.575268 0.733645
20.7985 51.4399 402.077 0.344359 -0.572264 0.744265
20.63 51.4257 402.157 0.329397 -0.538909 0.77529
20.4569 51.4172 402.234 0.31035 -0.583011 0.750853
20.2817 51.4112 402.309 0.22416 -0.639696 0.735215
20.0685 51.4254 402.349 0.23164 -0.676548 0.699018
19.8785 51.4214 402.41 0.365472 -0.646489 0.669688
19.7393 51.4045 402.52 0.328121 -0.589793 0.737889
19.535 51.4024 402.567 0.21731 -0.588686 0.778605
19.3479 51.3977 402.631 0.152139 -0.608034 0.779197
19.1258 51.4171 402.664 0.122762 -0.618409 0.776209
18.9068 51.4297 402.699 0.164719 -0.583645 0.795126
18.7242 51.426 402.768 0.162059 -0.563102 0.810341
18.4981 51.4416 402.797 0.165403 -0.582243 0.796012
18.2997 51.4449 402.851 0.0899076 -0.528051 0.84444
18.0606 51.4662 402.868 0.0643707 -0.573405 0.816739
17.8566 51.4719 402.918 0.085624 -0.653192 0.752335
17.6244 51.49 402.942 -0.0230408 -0.574847 0.817937
17.3581 51.5231 402.935 -0.0331355 -0.580627 0.813495
17.14 51.5349 402.972 0.0406195 -0.675917 0.735858
16.9013 51.5548 402.99 0.05212 -0.636272 0.769702
16.6711 51.5726 403.017 0.0691607 -0.583249 0.809344
16.4329 51.5931 403.036 0.00819104 -0.546142 0.837653
16.1832 51.6186 403.045 -0.0126829 -0.571835 0.820271
15.9517 51.636 403.071 0.0657287 -0.665202 0.743765
15.7278 51.6499 403.104 0.121959 -0.66584 0.736059
15.5425 51.6524 403.174 0.149236 -0.654573 0.741122
15.3043 51.6634 403.192 0.17149 -0.638906 0.749927
15.1329 51.6612 403.275 0.203212 -0.649763 0.732471
14.9123 51.6654 403.31 0.250269 -0.657142 0.711007
14.749 51.6571 403.4 0.280366 -0.639212 0.716103
14.5462 51.6616 403.453 0.286797 -0.645756 0.707634
14.3783 51.6507 403.538 0.333266 -0.649205 0.683716
14.1918 51.6479 403.607 0.436202 -0.648342 0.624003
14.0339 51.6325 403.701 0.515152 -0.58945 0.622228
13.9003 51.6065 403.817 0.512315 -0.539096 0.668513
13.7521 51.5869 403.92 0.578797 -0.577186 0.576065
13.6263 51.5574 404.044 0.627569 -0.597822 0.498765
13.4961 51.5303 404.163 0.638031 -0.571644 0.515887
13.3702 51.5008 404.286 0.590764 -0.549172 0.591108
13.2296 51.4779 404.396 0.514118 -0.575365 0.636112
13.0761 51.4607 404.495 0.553977 -0.614954 0.561196
12.9481 51.4323 404.616 0.61791 -0.616255 0.48828
12.8246 51.4016 404.742 0.671352 -0.593284 0.444186
12.7156 51.3654 404.88 0.684496 -0.566281 0.459121
12.5936 51.3343 405.007 0.620894 -0.544849 0.563587
12.4639 51.3064 405.127 0.565376 -0.561876 0.603858
12.3091 51.2898 405.224 0.550836 -0.571266 0.608469
12.1728 51.265 405.339 0.552999 -0.580511 0.597661
12.0268 51.2444 405.444 0.548102 -0.579938 0.602707
11.8864 51.2214 405.554 0.49987 -0.570349 0.651792
11.7268 51.2067 405.648 0.474905 -0.615667 0.628824
11.5612 51.1947 405.736 0.523928 -0.637 0.565447
11.4309 51.167 405.855 0.52711 -0.595994 0.605761
11.2853 51.1444 405.961 0.414478 -0.547215 0.727161
11.0974 51.1439 406.03 0.352649 -0.573461 0.739447
10.9242 51.135 406.112 0.387994 -0.589938 0.70812
10.7517 51.1258 406.194 0.441568 -0.559928 0.701069
10.5964 51.1091 406.292 0.440521 -0.5943 0.672866
10.4461 51.0888 406.393 0.443432 -0.618407 0.648799
10.2793 51.0777 406.481 0.373347 -0.567936 0.733526
10.1096 51.0681 406.566 0.270797 -0.589579 0.760964
9.91365 51.074 406.631 0.233843 -0.632398 0.738505
9.70297 51.0735 406.677 0.22209 -0.614305 0.757169
9.5135 51.0741 406.746 0.22264 -0.629443 0.744468
9.30823 51.0762 406.799 0.23364 -0.650986 0.722239
9.1297 51.0713 406.878 0.248678 -0.655425 0.713146
8.92625 51.0742 406.933 0.197688 -0.648822 0.734813
8.71522 51.0791 406.982 0.186866 -0.648108 0.738266
8.53337 51.0767 407.059 0.1432 -0.661146 0.736464
8.30254 51.0922 407.091 0.121152 -0.702603 0.701192
8.08849 51.1002 407.138 0.166688 -0.708285 0.685965
7.87552 51.11 407.188 0.14234 -0.649827 0.746635
7.66163 51.1097 407.232 0.116261 -0.63388 0.764643
7.44426 51.1226 407.278 0.100347 -0.64998 0.753297
7.23349 51.1288 407.329 0.0387685 -0.67464 0.737128
6.96986 51.1606 407.335 0.0506883 -0.684081 0.727642
6.74158 51.1692 407.369 0.0485392 -0.634245 0.771607
6.50346 51.1925 407.399 -0.0259766 -0.586431 0.809583
6.23679 51.2244 407.403 -0.0450998 -0.603707 0.79593
5.97872 51.2489 407.413 -0.0243157 -0.671892 0.74025
5.73569 51.2688 407.437 -0.012308 -0.696493 0.717458
5.49201 51.2889 407.46 -0.066868 -0.661885 0.746617
5.20907 51.3255 407.45 -0.107816 -0.631906 0.767509
4.89456 51.3754 407.413 -0.120081 -0.559339 0.820196
4.61282 51.4113 407.404 -0.17135 -0.535895 0.826714
4.30643 51.4576 407.375 -0.183769 -0.635201 0.750165
3.99366 51.5065 407.34 -0.132962 -0.677091 0.723788
3.72877 51.535 407.347 -0.206437 -0.59001 0.780558
3.34012 51.6156 407.248 -0.268685 -0.570492 0.776111
3.02291 51.666 407.21 -0.294018 -0.569599 0.767535
2.57195 51.7726 407.058 -0.337362 -0.509504 0.791576
-3.6606 54.0545 402.669 0.49108 0.0807657 0.867362
-3.82099 54.0309 402.772 0.379902 -0.0925493 0.920385
-4.02146 54.0378 402.844 0.281624 -0.199046 0.938652
-4.21657 54.0369 402.916 0.260171 -0.253583 0.931669
-4.45086 54.0466 402.955 0.294171 -0.227568 0.928265
-4.64037 54.0412 403.034 0.2778 -0.199376 0.939722
-4.86988 54.0532 403.078 0.233101 -0.195867 0.952523
-5.0732 54.053 403.144 0.230505 -0.201574 0.951964
-5.29573 54.0611 403.195 0.159454 -0.218059 0.962821
-5.53766 54.078 403.229 0.172168 -0.217598 0.960734
-5.75783 54.0847 403.282 0.215238 -0.225941 0.950065
-5.98115 54.0931 403.332 0.144118 -0.182432 0.972599
-6.23046 54.1117 403.36 0.10512 -0.201215 0.97389
-6.46798 54.1308 403.4 0.0503521 -0.288485 0.956159
-6.76794 54.1668 403.385 0.00828929 -0.237416 0.971373
-7.02042 54.1832 403.411 -0.0284825 -0.204237 0.978507
-7.32182 54.228 403.397 -0.0339654 -0.276286 0.960475
-7.58465 54.2491 403.415 -0.0802222 -0.286714 0.954652
-7.91728 54.3004 403.374 -0.193235 -0.283574 0.939279
-8.28573 54.3735 403.306 -0.232692 -0.272722 0.933529
-8.66706 54.4469 403.225 -0.26203 -0.236426 0.935651
-9.06981 54.5243 403.126 -0.306127 -0.253164 0.917712
-9.51142 54.6383 403 -0.357123 -0.290839 0.887624
25.9712 54.2016 393.248 0.998085 -0.0396774 -0.0474526
25.9936 54.1055 393.516 0.998402 0.00865469 -0.0558448
26.0034 54.0091 393.773 0.998997 0.0435879 0.0102801
26.0074 53.9187 394.024 0.998481 0.0349098 -0.0426259
26.0326 53.8184 394.295 0.999892 0.00560317 -0.0135893
26.0172 53.7342 394.526 0.99787 -0.0303718 0.0577268
25.9992 53.655 394.753 0.990255 -0.0623885 0.124509
25.9579 53.5882 394.959 0.98742 -0.0803439 0.136185
25.9307 53.507 395.178 0.993444 -0.0914144 0.0686419
25.9236 53.4279 395.416 0.981615 -0.150512 0.117376
25.8686 53.3655 395.608 0.984583 -0.160761 0.0689334
25.8646 53.2795 395.849 0.983341 -0.165368 0.0754561
25.8049 53.2193 396.035 0.968983 -0.189658 0.158433
25.7634 53.1507 396.239 0.979291 -0.16532 0.116873
25.7355 53.0761 396.456 0.96961 -0.191058 0.15282
25.6776 53.0153 396.643 0.967995 -0.215966 0.127844
25.6534 52.9391 396.864 0.958246 -0.24445 0.148355
25.5829 52.8842 397.039 0.936664 -0.298193 0.183688
25.5366 52.8183 397.237 0.92575 -0.287671 0.245423
25.4615 52.7657 397.407 0.938856 -0.276152 0.205643
25.4155 52.6996 397.606 0.936864 -0.308935 0.163845
25.3542 52.6413 397.789 0.905786 -0.328879 0.26719
25.2829 52.5906 397.963 0.930778 -0.25448 0.262473
25.2188 52.5292 398.144 0.917215 -0.248432 0.311447
25.1365 52.4801 398.306 0.899084 -0.336067 0.280548
25.0721 52.4182 398.487 0.889446 -0.353551 0.289632
24.984 52.3796 398.643 0.885811 -0.301773 0.352522
24.9151 52.3215 398.819 0.872026 -0.290004 0.394295
24.8068 52.2819 398.957 0.833641 -0.320251 0.449981
24.7247 52.239 399.119 0.812096 -0.345054 0.470571
24.6102 52.2014 399.251 0.791742 -0.3884 0.471476
24.5063 52.1572 399.392 0.788423 -0.416569 0.452614
24.4134 52.1186 399.544 0.772675 -0.444336 0.453363
24.3174 52.0735 399.693 0.752739 -0.492333 0.437027
24.2055 52.0412 399.827 0.675353 -0.510706 0.532051
24.0813 52.0118 399.949 0.621783 -0.513124 0.591684
23.9536 51.9837 400.068 0.641301 -0.536422 0.54862
23.8198 51.9579 400.18 0.687878 -0.517608 0.508829
23.6956 51.9287 400.303 0.708919 -0.469584 0.526236
23.5713 51.8994 400.425 0.658865 -0.453242 0.60039
23.4498 51.869 400.549 0.636352 -0.491757 0.594332
23.3276 51.8374 400.674 0.641051 -0.527735 0.557269
23.2006 51.8091 400.792 0.566195 -0.551618 0.612487
23.0337 51.7996 400.874 0.539952 -0.520701 0.661304
22.8932 51.7805 400.981 0.567144 -0.458552 0.684162
22.7459 51.7583 401.081 0.526443 -0.427431 0.734956
22.6006 51.7386 401.183 0.506649 -0.429202 0.747725
22.4594 51.7167 401.289 0.505387 -0.486598 0.712605
22.3014 51.702 401.379 0.474114 -0.524871 0.706913
22.135 51.6921 401.461 0.485633 -0.51506 0.70631
21.9895 51.6722 401.563 0.502366 -0.522453 0.688964
21.8259 51.6576 401.648 0.484178 -0.497866 0.719515
21.6835 51.6411 401.754 0.421713 -0.484094 0.766689
21.5109 51.6314 401.83 0.439283 -0.528983 0.726091
21.3589 51.6131 401.926 0.464988 -0.513827 0.72095
21.1922 51.6042 402.009 0.401649 -0.5165 0.756245
21.0348 51.5933 402.101 0.361843 -0.564766 0.741693
20.8477 51.5834 402.163 0.310544 -0.573572 0.758009
20.6534 51.5847 402.22 0.372921 -0.561971 0.738322
20.5074 51.5696 402.323 0.399454 -0.532345 0.746355
20.3343 51.5627 402.4 0.293102 -0.528142 0.796968
20.1588 51.5562 402.474 0.210115 -0.556691 0.803709
19.9455 51.5665 402.514 0.310915 -0.623999 0.716908
19.7756 51.5573 402.594 0.335822 -0.60555 0.72148
19.5864 51.5508 402.656 0.254605 -0.569067 0.781882
19.4034 51.5534 402.725 0.177535 -0.57329 0.799887
19.1855 51.5656 402.761 0.0916387 -0.55531 0.826579
18.9643 51.58 402.794 0.14804 -0.565565 0.811308
18.7493 51.59 402.833 0.180091 -0.567068 0.803742
18.5584 51.5901 402.894 0.129231 -0.56395 0.815634
18.3205 51.6109 402.912 0.136017 -0.554074 0.82128
18.1459 51.6037 402.989 0.14435 -0.563089 0.813691
17.9207 51.6188 403.019 0.0586751 -0.526321 0.848259
17.6645 51.6477 403.021 -0.00569066 -0.503855 0.863769
17.4393 51.6627 403.051 0.0351825 -0.586129 0.809454
17.2169 51.6764 403.084 0.00693888 -0.614684 0.788743
16.9409 51.7138 403.069 0.0065871 -0.579915 0.81465
16.7249 51.7246 403.108 0.0490699 -0.584124 0.81018
16.4875 51.7448 403.128 0.035531 -0.561732 0.826556
16.2748 51.754 403.171 0.0535343 -0.579948 0.812892
16.0485 51.7692 403.202 0.0572227 -0.627825 0.776248
15.8195 51.7855 403.23 0.107677 -0.64116 0.759815
15.5941 51.8001 403.262 0.132325 -0.625781 0.768693
15.39 51.7988 403.312 0.175666 -0.638968 0.748907
15.1903 51.8105 403.369 0.201149 -0.653294 0.729895
14.991 51.8074 403.424 0.227371 -0.650681 0.724511
14.7984 51.8137 403.488 0.287951 -0.631226 0.720165
14.6251 51.8015 403.567 0.301467 -0.586532 0.75173
14.434 51.8025 403.631 0.339849 -0.613862 0.712514
14.2756 51.7874 403.725 0.381639 -0.630417 0.675963
14.1056 51.7775 403.808 0.442241 -0.653365 0.61444
13.9415 51.7649 403.897 0.527612 -0.628027 0.572021
13.8157 51.7355 404.02 0.599349 -0.601082 0.528659
13.69 51.706 404.143 0.59748 -0.615838 0.513577
13.5498 51.6831 404.254 0.59508 -0.608557 0.524918
13.4197 51.6555 404.373 0.585533 -0.60733 0.536937
13.2817 51.6315 404.485 0.550402 -0.60172 0.578784
13.1511 51.6043 404.604 0.569652 -0.609444 0.55143
13.017 51.5785 404.721 0.612808 -0.607893 0.504909
12.8901 51.5498 404.843 0.652031 -0.590418 0.475671
12.7645 51.5202 404.966 0.643598 -0.590196 0.487288
12.6285 51.4954 405.081 0.610462 -0.593308 0.524711
12.4968 51.4686 405.199 0.560981 -0.595573 0.574972
12.3562 51.4457 405.309 0.538076 -0.631096 0.558741
12.2241 51.4187 405.427 0.536705 -0.621797 0.570365
12.071 51.4017 405.526 0.545263 -0.545022 0.636898
11.9305 51.3786 405.636 0.564669 -0.50454 0.653137
11.7963 51.353 405.752 0.520981 -0.559986 0.644201
11.6612 51.3277 405.867 0.480335 -0.639523 0.600241
11.488 51.3189 405.949 0.454003 -0.652933 0.606267
11.3168 51.3079 406.031 0.424621 -0.611097 0.668025
11.172 51.2902 406.14 0.369892 -0.563917 0.738362
10.9826 51.2863 406.206 0.352858 -0.602022 0.716282
10.816 51.2748 406.294 0.441378 -0.665889 0.601479
10.6853 51.2471 406.413 0.431084 -0.689927 0.581522
10.4946 51.2435 406.478 0.375731 -0.664708 0.645747
10.3301 51.2348 406.569 0.398465 -0.591321 0.701117
10.1596 51.224 406.654 0.326551 -0.592163 0.736687
9.97346 51.2197 406.724 0.220885 -0.618439 0.754151
9.76906 51.2204 406.777 0.236941 -0.623385 0.745151
9.59015 51.2198 406.857 0.245418 -0.625363 0.740737
9.38894 51.2205 406.913 0.236126 -0.649075 0.72315
9.19539 51.2223 406.979 0.251396 -0.654435 0.713102
9.00506 51.2184 407.046 0.202452 -0.635911 0.744735
8.80132 51.2223 407.102 0.210156 -0.655837 0.72506
8.6005 51.2268 407.161 0.208022 -0.620886 0.755796
8.40857 51.223 407.226 0.132941 -0.616913 0.775722
8.17754 51.2392 407.259 0.118655 -0.664011 0.738249
7.96361 51.2455 407.306 0.124974 -0.681894 0.720695
7.73784 51.2581 407.343 0.132803 -0.663358 0.736424
7.53384 51.2729 407.405 0.151533 -0.638548 0.754516
7.31644 51.2736 407.446 0.0571825 -0.598266 0.799255
7.06546 51.2995 407.463 0.0169381 -0.615113 0.788257
6.82809 51.3151 407.49 0.0205768 -0.669349 0.742663
6.56362 51.3445 407.494 -0.0143035 -0.656783 0.753944
6.32747 51.3619 407.524 0.00480461 -0.657648 0.75331
6.10066 51.3729 407.56 -0.00704458 -0.690849 0.722965
5.83362 51.405 407.565 -0.0188122 -0.658786 0.752095
5.5744 51.4318 407.575 -0.0663195 -0.57047 0.818636
5.2762 51.475 407.551 -0.153229 -0.57042 0.806933
4.96692 51.5228 407.519 -0.128201 -0.639717 0.757844
4.71307 51.5471 407.534 -0.096434 -0.6723 0.73397
4.44366 51.5778 407.536 -0.171626 -0.612934 0.77127
4.09842 51.6406 407.474 -0.166786 -0.616221 0.769711
3.7944 51.6858 407.447 -0.190117 -0.55729 0.80826
3.47604 51.7369 407.408 -0.256253 -0.530748 0.807862
3.08645 51.818 407.308 -0.309979 -0.557711 0.769981
2.69248 51.9007 407.205 -0.326919 -0.556 0.764191
-3.82419 54.2207 402.816 0.455947 -0.241038 0.856745
-4.01995 54.2181 402.888 0.326957 -0.216777 0.919841
-4.22285 54.2142 402.954 0.238372 -0.250907 0.938203
-4.44994 54.2332 403.002 0.264482 -0.245936 0.932504
-4.63937 54.2272 403.08 0.268721 -0.237245 0.933544
-4.86905 54.2349 403.123 0.234458 -0.242349 0.941433
-5.07201 54.2352 403.19 0.238057 -0.235807 0.942191
-5.30763 54.2509 403.231 0.159541 -0.222487 0.961793
-5.53961 54.2601 403.271 0.182479 -0.206184 0.961348
-5.75894 54.2681 403.326 0.175526 -0.215778 0.960537
-6.01648 54.2909 403.347 0.157526 -0.182108 0.970578
-6.22536 54.2942 403.41 0.178101 -0.188623 0.965765
-6.45037 54.3015 403.459 0.0137945 -0.268504 0.96318
-6.76631 54.3501 403.431 -0.0238088 -0.296375 0.954775
-7.01927 54.37 403.458 0.0141909 -0.273321 0.961818
-7.29235 54.3988 403.468 -0.0252496 -0.281594 0.959202
-7.58318 54.4352 403.462 -0.0734418 -0.278558 0.957607
-7.89158 54.4829 403.444 -0.192677 -0.260191 0.946138
-8.28203 54.5562 403.353 -0.25052 -0.281641 0.926238
-8.66513 54.6393 403.273 -0.258043 -0.287097 0.922491
-9.04321 54.7068 403.196 -0.288896 -0.288693 0.912796
-9.45386 54.7867 403.092 -0.344328 -0.295404 0.891165
25.9951 54.2782 393.559 0.999664 0.00176258 -0.0258578
25.9875 54.1958 393.798 0.999314 0.0362983 -0.00737676
26.0022 54.1012 394.06 0.997043 0.0587173 -0.0495635
26.0343 54.0015 394.338 0.999216 0.0364612 -0.0154404
26.0221 53.9114 394.572 0.998192 0.00356228 0.0600076
26.0139 53.8291 394.81 0.991532 -0.0642051 0.112885
25.9634 53.761 395.006 0.990698 -0.0742658 0.114025
25.9606 53.682 395.25 0.995728 -0.0829264 0.0405983
25.9326 53.5961 395.466 0.985872 -0.130752 0.104696
25.8924 53.5301 395.672 0.986013 -0.150632 0.071334
25.8828 53.4466 395.907 0.983747 -0.160082 0.0813325
25.8366 53.3801 396.107 0.966341 -0.198699 0.163413
25.7955 53.3115 396.311 0.975577 -0.198269 0.0945485
25.7663 53.2372 396.527 0.97488 -0.181681 0.128842
25.7213 53.1704 396.727 0.972284 -0.202781 0.116381
25.692 53.0964 396.942 0.966784 -0.22315 0.124628
25.6485 53.0291 397.143 0.928386 -0.307363 0.208874
25.5644 52.9806 397.305 0.922895 -0.304572 0.235586
25.51 52.9183 397.495 0.951607 -0.254566 0.172166
25.4781 52.8454 397.707 0.932736 -0.311735 0.181174
25.3898 52.7957 397.864 0.885062 -0.322741 0.335414
25.2901 52.7583 398.011 0.926833 -0.241366 0.287618
25.2508 52.6893 398.215 0.941496 -0.248072 0.228136
25.195 52.628 398.404 0.898139 -0.354386 0.260302
25.1095 52.5804 398.564 0.861216 -0.371543 0.346788
25.0079 52.5416 398.707 0.870981 -0.332397 0.361806
24.929 52.49 398.873 0.869722 -0.330144 0.366863
24.8417 52.4409 399.031 0.832205 -0.367282 0.415378
24.7431 52.4018 399.178 0.82279 -0.385985 0.417171
24.6582 52.3594 399.338 0.807012 -0.392882 0.440879
24.5607 52.3112 399.485 0.797536 -0.430367 0.422754
24.4569 52.276 399.627 0.79146 -0.469193 0.391725
24.3595 52.2315 399.775 0.746563 -0.496002 0.443425
24.2351 52.2021 399.897 0.676001 -0.483979 0.555687
24.1048 52.1752 400.013 0.656951 -0.476369 0.58437
23.9798 52.1462 400.134 0.666387 -0.416335 0.618541
23.8558 52.1165 400.256 0.687925 -0.370433 0.624131
23.736 52.0832 400.382 0.699299 -0.415811 0.581448
23.6174 52.0527 400.509 0.684323 -0.463062 0.563273
23.4935 52.0236 400.631 0.671191 -0.482229 0.56299
23.3646 51.9951 400.75 0.663856 -0.482367 0.571504
23.2407 51.9661 400.872 0.540955 -0.523543 0.658233
23.0817 51.953 400.96 0.467943 -0.575984 0.670277
22.9336 51.9338 401.06 0.495947 -0.603265 0.624586
22.7771 51.9189 401.151 0.491979 -0.571776 0.656528
22.6247 51.9039 401.247 0.538012 -0.527387 0.657576
22.4839 51.8803 401.353 0.542659 -0.478251 0.690506
22.3383 51.8604 401.455 0.480115 -0.454617 0.750208
22.1814 51.8462 401.546 0.490545 -0.529221 0.692308
22.04 51.824 401.652 0.4736 -0.537099 0.698017
21.8692 51.8156 401.73 0.455632 -0.547295 0.702046
21.7177 51.8012 401.827 0.450154 -0.554176 0.700178
21.5523 51.7857 401.91 0.428044 -0.518024 0.74056
21.3884 51.7759 401.996 0.467822 -0.506108 0.724567
21.2433 51.7572 402.098 0.455438 -0.505875 0.732575
21.0773 51.7451 402.181 0.376106 -0.560084 0.73814
20.9045 51.7332 402.258 0.290233 -0.599879 0.745594
20.7272 51.7332 402.331 0.326516 -0.621041 0.712527
20.5482 51.7316 402.403 0.385699 -0.588288 0.710741
20.3792 51.719 402.483 0.333324 -0.522639 0.784693
20.1823 51.7205 402.538 0.276874 -0.508578 0.815285
20.0172 51.7126 402.623 0.303914 -0.554351 0.77481
19.8376 51.7045 402.693 0.307381 -0.594961 0.742657
19.6527 51.702 402.76 0.262465 -0.607781 0.749476
19.4615 51.7025 402.82 0.173992 -0.590022 0.788417
19.2417 51.7156 402.854 0.0900699 -0.55883 0.824376
19.0177 51.7306 402.885 0.145411 -0.559054 0.816281
18.837 51.7254 402.955 0.183571 -0.581495 0.792569
18.6137 51.7407 402.987 0.117457 -0.571557 0.812112
18.4045 51.7488 403.031 0.136645 -0.591571 0.794589
18.182 51.763 403.064 0.128229 -0.54698 0.827267
17.9471 51.7825 403.085 0.0550729 -0.506068 0.860733
17.7405 51.7894 403.132 0.0508489 -0.558527 0.827927
17.5077 51.8079 403.156 0.0724631 -0.586574 0.806647
17.2889 51.8201 403.192 -0.0144187 -0.537907 0.842881
17.0207 51.8542 403.184 0.00475393 -0.539838 0.841755
16.8136 51.8611 403.231 0.0317463 -0.583541 0.811463
